# .PCD v0.7 - Point Cloud Data file format
VERSION 0.7
FIELDS x y z intensity
SIZE 4 4 4 4
TYPE F F F F
COUNT 1 1 1 1
WIDTH 1404
HEIGHT 1
VIEWPOINT 0 0 0 1 0 0 0
POINTS 1404
DATA ascii
-1.9824823 -0.60412222 40.577156 6
-1.7186313 -0.7095266 40.555805 4.5
-1.5500519 -0.65394425 40.59185 3
0.045717761 -0.75140303 40.468979 3
2.1300488 -0.70165294 40.53006 3.8636363
2.2572746 -0.67956448 40.58289 5.6666665
2.5332878 -0.67601836 40.568634 4.5
2.727071 -0.70863569 40.553986 3.6363637
2.8274837 -0.785164 40.588253 5
3.0573893 -0.71222192 40.588909 3
27.997543 -0.76978898 40.539192 5
36.078011 -0.73945993 40.504524 6
-19.000723 -0.53754354 40.491825 6
-18.728674 -0.58102864 40.546677 6
-18.499569 -0.51253736 40.438789 6
-18.306204 -0.5206303 40.489227 6
-9.8341999 -0.40547371 40.491943 6
-9.6650991 -0.54533958 40.529968 5
-9.5718527 -0.50540638 40.568367 5
-9.2318983 -0.5088293 40.517746 6
-9.1179962 -0.53120351 40.530098 5.1999998
-8.9597521 -0.47255874 40.576214 5
2.150198 -0.47721979 40.529381 4.2857141
2.2327747 -0.49847555 40.576412 6.1999998
2.5787477 -0.46751738 40.569386 6
2.6924524 -0.47809926 40.56522 4.4545455
28.138035 -0.40259907 40.575176 6
36.078758 -0.59496534 40.548622 6
39.351456 -0.41888037 40.519924 7
44.393093 -0.52812386 40.434063 7
-27.08794 -0.34780985 40.416924 7
-18.712767 -0.21552457 40.457306 7
-9.6831112 -0.27729863 40.51078 6
-9.5298595 -0.23891708 40.551971 6
-9.3043165 -0.2764661 40.53067 6.1111112
-9.0767574 -0.25442484 40.52269 6
-8.9816771 -0.2173477 40.582191 6
2.1332726 -0.28912255 40.532009 5
2.2410042 -0.31014419 40.555546 6.5
2.4384403 -0.39680198 40.515488 5
2.7129736 -0.30333406 40.551296 5.0769229
2.837985 -0.35777497 40.522415 7
27.685345 -0.38757727 40.57925 6
39.233929 -0.39291301 40.575264 7
39.42601 -0.39783958 40.571537 7
-18.7393 -0.097816624 40.509682 7
-18.518312 -0.05319117 40.416016 7
-18.293056 -0.18085903 40.495346 7
-9.8240566 -0.089110225 40.471016 7
-9.7352276 -0.12887734 40.471756 7
-9.5448761 -0.042132877 40.525166 7
-9.2853651 -0.11249027 40.508831 6.8571429
-9.0786657 -0.036265314 40.511372 7
-8.9991188 -0.0091569722 40.554108 7
2.1305647 -0.1273343 40.530796 5.8888888
2.2577591 -0.058548331 40.533897 6.1999998
2.4640603 -0.15183499 40.539795 6
2.7194226 -0.073402949 40.554195 5.7941175
2.8215868 -0.11037935 40.56012 7
3.0773692 -0.11949779 40.548115 5
27.720364 -0.11510924 40.588989 7
36.071644 -0.18006498 40.597805 7
-9.3244905 0.045647833 40.53093 7
1.9753056 0.18165061 40.59024 7
2.1460378 0.11849982 40.528267 7
2.3322062 0.073853493 40.504105 6.5
2.7202871 0.10990315 40.548481 6.8125
36.115166 0.08195664 40.508324 7
-9.8395233 0.36671481 40.493286 8
-9.7045269 0.37551165 40.528118 8
-9.5364456 0.37689582 40.54031 8
-9.357522 0.3681815 40.488136 8
-9.1124449 0.36776975 40.536755 8
-8.9777088 0.37132964 40.580498 8
-2.2421274 0.34719735 40.549828 8
-2.1334622 0.32068586 40.553589 8
-1.868117 0.30868736 40.537292 8
-1.477227 0.33505881 40.561363 8
-1.0586852 0.31258711 40.550945 8
1.9790512 0.34014243 40.45784 8
2.1323774 0.33691427 40.484615 7.625
2.2595551 0.30258897 40.44569 7.625
2.5947146 0.36499915 40.592628 8
2.7110205 0.32819855 40.561352 7.681818
2.8036931 0.35955146 40.577011 7
-27.053043 0.56698203 40.519211 8
-18.53059 0.50648028 40.469292 8
-18.253269 0.48724678 40.53434 8
-9.828373 0.43135977 40.491158 8
-9.6922684 0.49564096 40.524891 8
-9.2351685 0.44962323 40.513294 8
-9.0777874 0.40122318 40.555492 8
-2.288064 0.48452702 40.579342 8
-1.2970419 0.58719802 40.41851 7
-1.0896614 0.49159983 40.541328 8
2.0989096 0.51434487 40.486897 8.666667
2.2974811 0.51960838 40.514507 9
2.4387138 0.42115903 40.510891 8
2.7358131 0.52363944 40.563774 8.125
2.8276029 0.46940795 40.576923 8
27.694515 0.42830276 40.575645 8
36.066456 0.49912193 40.587914 8
39.263836 0.50254607 40.548466 8
39.647766 0.51264834 40.565887 8
44.331421 0.54275501 40.439194 8
-18.72928 0.77127928 40.577549 8
-18.521435 0.67208302 40.433674 8
-18.398521 0.68838793 40.45311 8
-2.2442448 0.75427377 40.524693 9
-2.105619 0.72801495 40.491592 9
-1.8393992 0.69515306 40.50349 9
-1.4855691 0.66610467 40.505997 9
-1.0942674 0.65703857 40.518234 9
-0.98259783 0.67017907 40.524654 9
2.1255078 0.63184071 40.530327 8
2.3035769 0.72357756 40.492596 9
2.593812 0.68739903 40.511696 8
2.7004249 0.68460619 40.557892 8.5714283
2.813833 0.62230122 40.584957 8
36.074776 0.61317098 40.53273 8
36.222004 0.63329446 40.553146 8
-18.519829 0.94524276 40.460419 8
-2.2588611 0.84278345 40.532497 9
-1.9327388 0.98783827 40.461189 11
-1.6849443 0.93328851 40.460487 11
-1.108791 0.91622639 40.509186 10.333333
2.3309331 0.82470655 40.453213 9
2.4245844 0.92722237 40.447807 9
2.7381446 0.90426904 40.556225 9.1999998
2.8902559 0.9427889 40.556385 12
-9.3071985 1.1088417 40.577858 9
-9.1741505 1.0800726 40.551506 9
-2.0668042 1.0371785 40.474228 11
-1.0665834 1.0160114 40.485157 11
-0.14202398 1.1129246 40.525108 11
2.1253023 1.123389 40.438713 9
2.4168587 1.0282816 40.455429 9
2.7575579 1.086789 40.576756 9
3.2357612 1.1042056 40.501152 12
4.3967881 1.1036832 40.463787 14
4.8851662 1.0959164 40.486465 14
5.7153339 1.0823405 40.596046 14
6.7572699 1.1060572 40.524445 14
7.3214483 1.1128749 40.544426 14
9.9640961 1.1022896 40.56773 14
12.515771 1.1233201 40.472019 9
13.299239 1.10613 40.505482 12
13.896195 1.1084286 40.520153 9
14.07247 1.1014462 40.486641 11
-9.5635395 1.2212658 40.535782 9
-9.1848755 1.2042546 40.576706 9
-3.6680057 1.5193539 40.514645 9
2.1922846 1.4358273 40.551708 9
2.6404285 1.4475449 40.532753 9
-18.310959 1.7193081 40.473488 9
-17.989965 1.7489771 40.556973 9
2.9488454 1.9740471 40.576729 14
-2.6136477 2.5221274 40.494846 9
-18.709358 -2.0024877 40.700718 4
2.8287463 -1.9545763 40.62397 4
-9.2726088 -1.6560521 40.668549 3
3.5945263 -1.6699717 40.711643 0
4.0457983 -1.7380695 40.717278 2
9.0629435 -1.7205765 40.727592 2
10.615921 -1.6801171 40.719582 3
15.134459 -1.7051497 40.786827 2
17.124407 -1.6451343 40.731308 0
19.778587 -1.6467494 40.670128 2
-9.5364962 -1.4527501 40.627968 3
-9.2518816 -1.5244431 40.731411 3
-9.0427303 -1.4755428 40.670475 3
2.1977274 -1.5190594 40.619171 5
2.6271753 -1.4709774 40.605289 4
19.24556 -1.5088329 40.704422 2.3333333
19.692545 -1.4642682 40.677616 2.3333333
-9.311759 -1.2773004 40.655075 4
-9.1978636 -1.2819334 40.687798 4
-8.973321 -1.3807852 40.602226 3
-2.6434019 -1.2967852 40.695366 2
-2.1087465 -1.3164645 40.769051 4
-1.7165945 -1.3050467 40.779087 3
-1.3852873 -1.2652425 40.708389 3.5
2.7467928 -1.2091341 40.628593 4
19.188499 -1.2452431 40.726486 3
19.761438 -1.2700299 40.683037 3
-21.539087 -1.1495566 40.64056 5
-9.2852087 -1.0878248 40.754028 4
-2.9575243 -1.0767848 40.777695 4
-2.5013394 -1.1013743 40.666061 3.3333333
-2.2651577 -1.1319364 40.621231 2
-2.009279 -1.0023776 40.672707 2
-1.6702216 -1.1446103 40.774139 4
-1.4763241 -1.0702391 40.69878 4.3333335
-1.3281418 -1.0570564 40.671448 2.5
2.0941229 -1.1323862 40.714699 3
2.6845343 -1.1151743 40.608604 3
3.9747536 -1.0741285 40.799908 3
10.548401 -1.0535461 40.796352 2
11.456369 -1.067147 40.738029 2
19.16468 -1.1377485 40.672878 3
19.230822 -1.0503712 40.703617 3
19.591135 -1.0409882 40.63987 3
19.692671 -1.1060462 40.647316 3
-26.993752 -0.84149867 40.612991 6
-9.2834969 -0.91336495 40.752548 4.3333335
-2.7383442 -0.94949377 40.767357 3.5
-2.2742374 -0.82617527 40.661133 3
-1.7114913 -0.91674286 40.713181 3
-1.4342252 -0.89299393 40.739796 3.6666667
-1.3695691 -0.80542058 40.730797 3
2.4397435 -0.89626515 40.660065 2
2.6901159 -0.89251333 40.617447 3
10.876155 -0.93738991 40.722729 2.6666667
11.042023 -0.84017169 40.779175 2
11.376416 -0.87438035 40.745659 2
19.188341 -0.89605415 40.692375 3.5
19.230795 -0.9644748 40.784142 3
19.724957 -0.87207812 40.682697 4
27.646309 -0.82883376 40.614265 6
39.247688 -0.86335564 40.703964 6
-21.721283 -0.65386063 40.698257 6
-9.2659559 -0.72863388 40.702179 5
-2.5249343 -0.68429476 40.76778 4
-2.0066619 -0.71526295 40.669537 3
-1.6801959 -0.63547385 40.643864 3
-1.5323862 -0.68883491 40.717525 4
-1.2075921 -0.62369835 40.76387 3
0.36685956 -0.63385034 40.662312 4
2.1488736 -0.69073588 40.613827 6
2.4697924 -0.64548182 40.66478 2
2.766016 -0.61412245 40.60257 5
3.1102576 -0.65746921 40.638073 2
10.472342 -0.72908235 40.786869 3
10.874352 -0.68856496 40.716003 2.75
11.399324 -0.76285315 40.715508 3
11.43653 -0.67209232 40.728905 2.5
19.18202 -0.67148912 40.678009 4
19.214569 -0.65532678 40.678379 4
19.767118 -0.779971 40.649048 4
19.801826 -0.7074492 40.65588 4
27.664066 -0.65011001 40.660801 6
-18.76302 -0.54425251 40.609055 6
-18.247837 -0.52047551 40.642685 6
-9.5434542 -0.50024366 40.60527 5
-9.269454 -0.53187257 40.73925 5
-2.6702037 -0.52039278 40.795277 5
-2.4396214 -0.51532185 40.700577 5
-2.264636 -0.54595679 40.774784 6
-1.7329314 -0.44472271 40.742584 6
2.1917918 -0.45627254 40.671593 6
2.4807417 -0.50358135 40.671032 3
2.8049223 -0.49756742 40.693169 2
3.0920246 -0.47888398 40.624409 3.1666667
10.881813 -0.48689628 40.729843 3
11.023005 -0.40368223 40.767372 5
11.430428 -0.51730108 40.733269 2.5999999
19.253904 -0.50701857 40.687157 4.5
19.778534 -0.4809235 40.706432 5
19.807928 -0.47530261 40.689671 5
27.723694 -0.48363787 40.618111 6
28.104448 -0.4597798 40.603691 6
36.086372 -0.57911867 40.67387 6
39.419502 -0.44454652 40.613083 7
-21.75625 -0.27543205 40.701069 7
-21.54472 -0.22241017 40.607819 7
-8.9291649 -0.20467339 40.609535 6
2.179476 -0.30612198 40.637463 6.25
2.4695792 -0.31896666 40.649189 3.5
2.7635591 -0.30277261 40.641865 5.3333335
2.9754646 -0.31497115 40.67704 3
3.0926018 -0.27249801 40.65134 4
10.866512 -0.3036128 40.738914 3.5
11.042468 -0.34192634 40.784893 5
11.352595 -0.2158429 40.669537 5
11.428311 -0.33117265 40.726513 3.5
19.251009 -0.30327266 40.675468 5.1999998
19.744242 -0.29159692 40.668415 5.5
-18.734726 -0.066160761 40.694439 7
-9.538806 -0.013946384 40.602921 7
-9.2382994 -0.10058323 40.68988 6.75
-8.9438734 -0.0036874861 40.605427 7
2.1901402 -0.12419555 40.690365 7
2.459023 -0.12780532 40.669964 4.6999998
2.6770542 -0.047811013 40.623169 6.3333335
3.1194792 -0.084198095 40.67918 4.6666665
10.913073 -0.084733561 40.744511 5.8000002
11.019779 -0.012665614 40.789135 7
11.281181 -0.058867216 40.729603 6
11.434397 -0.13869318 40.731087 4.75
19.238535 -0.087281942 40.66988 6.3333335
19.748249 -0.11323915 40.680691 6.4000001
19.805935 -0.039837509 40.710091 7
27.665272 -0.11311762 40.661873 7
28.136253 -0.14051795 40.633854 7
-18.765562 0.066563308 40.654118 7
-9.2951212 0.042872176 40.655815 7
3.1161776 0.076120317 40.641312 6.4166665
10.511634 0.056602523 40.794506 6
10.878274 0.063428774 40.728722 6.7142859
11.039541 0.026181385 40.790131 7
11.326128 0.026141465 40.746834 6.5
11.438148 0.089478604 40.728485 6.5833335
19.237921 0.052367583 40.668545 7
19.715282 0.020982184 40.665512 7
36.027813 0.17652774 40.643803 7
-9.580286 0.39142412 40.634678 8
-8.9494982 0.38315523 40.618866 8
2.2037859 0.25401828 40.644127 8
3.1214273 0.28348261 40.663025 7.9000001
10.874097 0.27096999 40.743706 8
11.44584 0.27414152 40.737125 8
19.268494 0.3335143 40.696987 8
19.47707 0.32968265 40.751598 8
19.789593 0.32429308 40.661613 7.75
19.834894 0.33754981 40.643375 8
27.696436 0.34551996 40.670162 7.5999999
-21.35939 0.54687685 40.618378 8
-18.400969 0.49969727 40.709732 8
-18.353798 0.51509422 40.617386 8
-9.2805071 0.49673137 40.719501 8
2.6822143 0.49470952 40.616898 8
3.098624 0.52364296 40.669819 9
10.874008 0.52738565 40.730541 9
11.439825 0.53884035 40.722076 9
19.827513 0.50079966 40.642582 8
27.717882 0.46259826 40.630913 8
36.08086 0.46447897 40.678425 8
-9.3019819 0.64128143 40.742573 8
-2.4563019 0.63795495 40.632477 8
2.5109725 0.69303888 40.619125 11
2.7566895 0.65680861 40.671333 8.25
3.1034076 0.67103273 40.638985 10
10.871655 0.65610999 40.728352 9.666667
11.230528 0.69378704 40.714302 10
11.418896 0.70575374 40.693451 11
19.821053 0.70847809 40.650059 9
36.130737 0.75347018 40.634613 8
-18.753857 0.86975795 40.691883 8
-9.3236761 0.80177593 40.746769 8
2.5150523 0.89473039 40.640873 11.666667
2.6833715 0.99008286 40.666748 9
2.8989258 0.9079054 40.68087 12
3.1147125 0.92954898 40.653008 12
3.2119122 0.82890749 40.642357 11
10.49799 0.89258736 40.795071 9
10.714423 0.86560243 40.753906 11.5
10.864859 0.88731229 40.732697 12
11.056396 0.88957345 40.693344 12
11.265342 0.90674412 40.726246 12
11.407052 0.9450233 40.705128 12
19.265306 0.9200961 40.667931 9
19.764347 0.93263298 40.658684 9
19.801006 0.96919644 40.61055 9
2.5452709 1.094433 40.623375 12
6.1437297 1.0892146 40.613846 14
8.3421984 1.0881945 40.644398 14
9.3353691 1.087254 40.660118 14
10.537154 1.0723394 40.708473 12
10.670421 1.0428255 40.715813 9
10.990731 1.0639453 40.759361 12
19.785336 1.0725697 40.748749 9
19.822641 1.0059311 40.691441 9
-0.76777673 1.3692263 40.791206 12
1.8067335 1.3750503 40.77803 14
-2.8055971 1.413834 40.782482 11
-2.6474333 1.5164452 40.699043 12
-1.5623341 1.4385525 40.675419 9
-0.7440452 1.4591956 40.762978 12
0.87894124 1.4761436 40.776455 12
2.4493456 1.5429488 40.771988 14
2.7312355 1.5661922 40.696411 9
10.70808 1.5009656 40.687096 10
-18.157925 1.68468 40.630798 9
-0.92588091 1.7342741 40.746986 14
1.5829319 1.7096219 40.754719 14
-0.81954765 1.899615 40.735241 14
0.43182442 1.8799365 40.748173 14
10.169197 1.9620223 40.730736 14
13.608144 1.9564102 40.751404 14
16.144119 1.95902 40.750584 14
4.0148568 -2.1605296 40.882538 2
3.0213985 -1.7297722 40.807243 2
6.6384902 -1.6787317 40.812157 0
9.2736616 -1.658971 40.862503 3
10.459664 -1.6855631 40.913769 1.3333334
10.897645 -1.671416 40.879692 3
17.080212 -1.675272 40.892792 2
18.674921 -1.6769857 40.925865 4
23.88965 -1.6095085 40.932884 3
2.0888367 -1.5201623 40.953049 2
10.524055 -1.5294784 40.864635 3
10.858603 -1.562264 40.830528 2
11.075553 -1.5273488 40.879887 3
23.446226 -1.484174 40.960178 3
24.109047 -1.5600638 40.953678 3
-8.952673 -1.3835313 40.909798 3
-2.2091589 -1.3202567 40.851566 3
-1.6483605 -1.3199614 40.823586 4
3.6428099 -1.2499397 40.993729 4
4.1678815 -1.3094659 40.854431 3
4.6412401 -1.2469683 40.856396 3
10.475691 -1.2984459 40.806786 3
10.776185 -1.30528 40.855816 2.5
10.929956 -1.3148667 40.840324 2.5
11.049838 -1.315194 40.843384 3.3333333
18.194307 -1.2487875 40.959518 3
19.164707 -1.3768942 40.837097 3
-18.33152 -1.0086656 40.952446 5
-1.4213529 -1.0129836 40.94178 2
4.3194108 -1.1269513 40.80801 0
4.5111074 -1.0887094 40.884907 2
10.505497 -1.0988673 40.853439 4
10.706546 -1.1162403 40.843857 3.5
11.061053 -1.1046195 40.869976 3.6666667
19.224052 -1.0090015 40.929436 4
27.645828 -1.0397468 40.985466 5
-18.253046 -0.98125279 40.971882 5
-18.187269 -0.98652083 40.909588 5
-2.7234571 -0.84734082 40.830105 4
-1.5561329 -0.83611631 40.816437 4
-1.1591715 -0.89826781 40.869926 2
4.1436749 -0.82567799 40.946987 4
4.4779701 -0.80045241 40.935402 0
10.522517 -0.8989777 40.840729 2
10.657841 -0.86902297 40.823341 2.5
10.959251 -0.91042942 40.856373 1.3333334
11.079044 -0.8679781 40.898357 4.1666665
19.225483 -0.89654297 40.843422 4
23.456299 -0.9455421 40.992065 4
23.866909 -0.98004252 40.954502 4
27.653538 -0.89893889 40.90823 5
-11.842125 -0.70855874 40.826744 5
-9.2935181 -0.61796117 40.802315 5
-9.1168623 -0.60677654 40.859119 5
-2.7427092 -0.70328957 40.983917 7
-1.461175 -0.72055984 40.97385 3
-1.3249779 -0.67943478 40.85968 3.5
2.1299345 -0.66685283 40.900528 4.5
4.1241693 -0.78303611 40.927399 2
10.515578 -0.68638021 40.836376 3.6666667
10.900298 -0.64346224 40.930733 4
11.07802 -0.69818437 40.845932 4.2222223
23.555449 -0.61094916 40.986294 5
36.054039 -0.74620759 40.814003 6
-18.706203 -0.55402511 40.937286 6
-2.8009205 -0.59267735 40.951973 7
-2.6977301 -0.53288138 40.921967 6
-2.3204012 -0.52397698 40.843712 4
-1.9763432 -0.46367645 40.977676 5
-1.6986327 -0.48841748 40.883698 5
-1.3645431 -0.54661322 40.903198 4
2.7289829 -0.48678303 40.905399 5
10.523686 -0.51220739 40.819603 4.1111112
11.051885 -0.51680672 40.847675 4
19.252184 -0.53892541 40.827606 5
23.468513 -0.52501392 40.956142 5
23.964434 -0.56111419 40.951668 5
24.122585 -0.54796898 40.903618 5
-18.235617 -0.21266206 40.989941 7
2.1114366 -0.38711241 40.993439 5
2.2030625 -0.25629121 40.842705 6
10.521585 -0.31500006 40.857082 4.7777777
10.686933 -0.33373836 40.834316 5.3333335
10.865044 -0.30153072 40.831074 6
11.045939 -0.33507288 40.862156 3.75
19.239523 -0.24519773 40.855225 6
23.450689 -0.23945779 40.94537 6
24.081244 -0.30083543 40.945301 6
27.667797 -0.24982436 40.81509 7
36.057892 -0.28381732 40.877026 7
-18.766321 -0.070155531 40.803459 7
-18.331211 -0.1722165 40.914452 7
-9.058794 -0.088042676 40.932156 7
2.7375755 -0.10715107 40.90815 6
10.515807 -0.10371086 40.844475 5.7692308
10.64402 -0.12772694 40.880459 6
10.88775 -0.12064333 40.849678 5.8000002
11.074001 -0.10984564 40.873444 5.4000001
19.240017 -0.10114784 40.82555 6.75
23.453606 -0.0046778545 40.971321 7
24.127176 -0.037770484 40.955456 7
27.629326 -0.12782645 40.890518 7
2.7208385 0.12013295 40.942955 7
10.529027 0.084352739 40.836449 6.6538463
10.798225 0.1859042 40.886749 7
10.994569 0.091692448 40.876213 7
11.053078 0.099553995 40.837276 6.5833335
-9.0183983 0.34530205 40.944633 8
3.1194415 0.2646516 40.825645 7
10.489292 0.30467477 40.818424 7.5
10.649567 0.34455681 40.852432 8
11.078067 0.33900008 40.851803 7.8333335
19.2651 0.36932194 40.910843 8
23.47464 0.36561939 40.975433 8
24.108267 0.35898766 40.984577 8
-18.277962 0.49950618 40.96537 8
10.530706 0.47091347 40.833122 8
10.626306 0.41998702 40.840591 8
10.913104 0.51418078 40.870815 8
11.097296 0.45220146 40.86496 7.7142859
23.478157 0.41217327 40.957012 8
23.934534 0.41066587 40.929333 8
24.163027 0.41886955 40.949936 8
27.664757 0.40685362 40.805466 8
2.6835403 0.62998354 40.96946 8
10.50468 0.68612933 40.835323 9
10.690278 0.69702262 40.878693 8
10.845497 0.76886445 40.82571 9
11.113327 0.69995618 40.905979 8.333333
-18.748125 0.90802336 40.816807 8
-9.1696978 0.97987556 40.942284 9
10.489113 0.87550324 40.837757 10.333333
10.644806 0.89410639 40.813347 9
10.951546 0.84193558 40.837196 9
11.073618 0.87170339 40.828506 9.5
2.6754522 1.0014125 40.983089 9
10.535586 1.0393053 40.884583 9
10.701113 1.0363835 40.809231 9
11.042847 1.1082684 40.832287 9
12.366681 1.070791 40.809612 12
19.273207 1.0382146 40.833515 9
0.88233805 1.3702962 40.837315 12
2.3324842 1.3627229 40.801514 14
9.1758432 1.3918774 40.943115 12
10.563701 1.2591912 40.836765 9
11.020759 1.2961093 40.813389 9
12.525286 1.2915653 40.940674 9
19.285927 1.3844109 40.919304 9
24.16877 1.2310628 40.929363 9
-1.7097631 1.4029698 40.805431 11
10.355615 1.5724708 40.971642 9
10.614353 1.5952996 40.95974 9
13.234541 1.558023 40.866573 14
19.105869 1.5285898 40.889683 9
9.3176384 1.6274407 40.914307 14
11.168398 1.7200001 40.997139 14
11.21401 1.6907136 40.99041 12
14.370995 1.6665356 40.852512 14
14.463829 1.95121 40.910416 14
19.065666 1.8779887 40.902225 9
9.1450872 -2.3152742 41.137329 2
18.918745 -2.1654069 41.090038 2
2.1155879 -1.6747034 41.022957 2
2.9348688 -1.6652722 41.088318 3
3.1992011 -1.6835762 41.061089 0
4.0108376 -1.6291037 41.066547 3
9.7743568 -1.703591 41.131367 2
10.198416 -1.6745733 41.178574 3
18.753315 -1.6375312 41.183426 3
18.920666 -1.6289251 41.129181 3
19.185349 -1.6189743 41.122505 4
19.475616 -1.6389329 41.118744 2.5
-9.0272961 -1.5061965 41.146103 3
-8.9327583 -1.4172992 41.174824 3
2.7147694 -1.5174247 41.046093 3
18.930613 -1.4919405 41.068287 2.3333333
19.280767 -1.4765818 41.068047 2.4000001
19.45517 -1.4576184 41.109123 3
2.7202117 -1.3779964 41.133324 2.5
3.4709716 -1.2118108 41.180943 3
4.1905918 -1.2401143 41.030994 3
4.2743187 -1.2622974 41.056782 3.5
8.6812906 -1.2486687 41.130234 3
11.109734 -1.2687688 41.131004 2
17.012093 -1.2489295 41.192966 3
18.896563 -1.3102198 41.101082 4.4000001
19.458134 -1.3287915 41.072784 3
23.784847 -1.2558218 41.064968 4
36.073151 -1.2772208 41.171883 5
-10.83287 -1.0979801 41.05611 4
-9.1259327 -1.1049716 41.094826 4
-8.9018002 -1.115304 41.171116 4
2.731699 -1.0860634 41.133514 2
3.3399315 -1.109687 41.050663 0
3.507236 -1.0091211 41.005806 4
8.716527 -1.0438 41.154133 4
8.904398 -1.071547 41.181892 4
9.3071241 -1.110606 41.056412 0
9.5458202 -1.1681429 41.094696 2
11.12532 -1.1086611 41.013332 4
14.71987 -1.1095487 41.18729 2
18.859308 -1.062822 41.069641 3.3333333
19.055265 -1.1386068 41.117439 3.75
19.31745 -1.088186 41.064617 3.8
19.44762 -1.1305426 41.109272 4
23.478888 -1.0776615 41.069061 4
23.787931 -1.0964115 41.012455 4
36.021614 -1.1543199 41.190201 6
-18.220409 -0.95628244 41.040527 5.5
-9.0290241 -0.97039664 41.108398 4
-8.9243298 -0.92165476 41.169384 4
2.7316644 -0.89917207 41.104568 3
2.8002486 -0.83042747 41.110943 2
9.1452742 -0.81111634 41.189568 4
9.3774042 -0.82882452 41.172325 3
11.128694 -0.91164237 41.157433 5
17.320683 -0.8304773 41.109482 4
18.970999 -0.86322397 41.087849 5
19.099377 -0.97687209 41.109039 4.5
19.330748 -0.86515009 41.101948 4
19.442137 -0.89621675 41.100258 4.4000001
27.6465 -0.90271008 41.035275 5
-11.049258 -0.65993869 41.062927 5
-10.963517 -0.62560391 41.176727 5
-9.1810513 -0.68173295 41.110771 5
-2.8522894 -0.60311621 41.003933 7
2.7125492 -0.67475885 41.159035 3.1666667
3.7959132 -0.68697548 41.141979 5
4.3180151 -0.70073473 41.049839 5.5
4.9559088 -0.78826112 41.053825 2
9.3494167 -0.79690987 41.185204 2
10.865088 -0.7342872 41.198502 3
11.165233 -0.75044352 41.109055 5
18.876259 -0.7006377 41.076721 4.25
19.093603 -0.63328129 41.066032 5.6666665
19.20219 -0.75213945 41.189842 4
19.468264 -0.70155936 41.116844 5
23.437971 -0.68851554 41.076454 5
36.063881 -0.73801804 41.061466 6
-18.497379 -0.41257784 41.189129 6
-18.192717 -0.53891015 41.077789 6
-9.0793686 -0.51148874 41.089603 5.25
-8.9525223 -0.49812311 41.185211 5
-2.7408435 -0.50964308 41.085876 7
-1.9723953 -0.42315525 41.156776 4
-1.6657752 -0.48109823 41.113899 7
2.1356654 -0.55402428 41.102051 5
2.7390101 -0.49037924 41.168499 3.4000001
11.144602 -0.46757424 41.000214 6
18.947315 -0.46613693 41.113308 5.5
19.045364 -0.43941408 41.088058 5.5
19.223152 -0.50512558 41.137772 5.5
19.478207 -0.51131499 41.100456 5.1999998
23.482113 -0.42152411 41.092461 6
27.641174 -0.46517432 41.180077 6
36.028481 -0.42306978 41.02422 7
39.203316 -0.43933177 41.151287 7
-9.069046 -0.28946763 41.071457 6
-8.9382696 -0.22954339 41.136101 6
2.1138902 -0.31404954 41.06118 5.5
2.7173615 -0.29026422 41.116505 4.3333335
10.526921 -0.32668543 41.160973 5
18.922865 -0.30803314 41.099586 5.6666665
19.306913 -0.29598525 41.084999 6.3333335
19.435406 -0.31122646 41.090328 5.5
23.426575 -0.33063358 41.052162 6
23.792173 -0.39527377 41.027477 6
27.669813 -0.38454831 41.073586 6
36.048615 -0.34549406 41.105488 7
-18.462317 -0.18440536 41.159943 7
-18.201347 -0.19248874 41.071342 7
-9.0902786 -0.10749812 41.066517 6.75
-8.944128 -0.10039347 41.130974 6.5
2.1041448 -0.14755547 41.120193 6
2.7343352 -0.10456872 41.166344 5.3000002
10.535591 -0.077353969 41.025303 6.5
10.865457 -0.030628741 41.090317 5
18.924006 -0.10597759 41.104355 6.3333335
19.292776 -0.12434451 41.091118 6.3333335
19.447273 -0.087454267 41.094738 6.125
23.427879 -0.10059384 41.064293 7
23.781424 -0.13680738 41.062069 7
24.09561 -0.11412937 41.016003 7
27.651489 -0.14212605 41.159328 7
-8.9666452 0.02590999 41.173496 7
2.7251594 0.079846837 41.163258 6.1666665
10.856961 0.1016173 41.047081 6.5
18.911306 0.098668903 41.104065 7
19.064768 0.088507876 41.111408 7
19.245934 0.081250638 41.115456 7
19.449699 0.12549837 41.108395 7
-9.2005129 0.37305701 41.112381 8
-9.0889874 0.37001735 41.106632 7.75
-8.9833336 0.35530487 41.186604 8
2.7168958 0.35092127 41.167503 7.75
10.538498 0.29416063 41.012676 8
10.859332 0.27633694 41.084763 8
11.123336 0.201772 41.029808 7
18.916908 0.37886199 41.090405 8
19.034248 0.28987047 41.08828 7
19.335241 0.30711916 41.124763 7.5
19.468895 0.24948628 41.115646 7
23.460567 0.35781509 41.078545 8
23.734894 0.35884625 41.039619 8
27.635199 0.32576388 41.161732 7.3333335
36.096146 0.35820842 41.043755 7
-18.202732 0.59180576 41.057461 8
-9.068779 0.40884763 41.094162 8
-8.9425182 0.45119113 41.148552 8
2.7173691 0.50321382 41.115856 8.333333
10.869294 0.538535 41.085228 9
18.940023 0.4956046 41.114487 7.909091
19.0282 0.53662556 41.08263 7.5999999
19.492596 0.49372786 41.109207 7.625
27.652348 0.52171457 41.166527 8
36.075283 0.48436502 41.121925 8
2.7294457 0.67132062 41.155514 8.666667
2.8259363 0.65143788 41.049236 8
11.131391 0.61505586 41.052273 8
18.942297 0.69173342 41.117764 7.8333335
19.127094 0.70376217 41.042866 8
19.273012 0.73307329 41.148235 8.666667
19.496384 0.63380206 41.12344 7.5
36.035866 0.70443445 41.189999 8
2.7866778 0.80900455 41.01963 9
10.526571 0.85338807 41.034229 9
18.94035 0.88136315 41.072384 8.5
19.28916 0.87837625 41.119549 8.666667
19.514111 0.9333536 41.103859 8
18.90938 1.0640956 41.102978 9
19.489708 1.0937208 41.100052 9
23.377312 1.184604 41.066742 9
23.504204 1.1923699 41.055325 9
11.154165 1.2155076 41.126343 9
18.953976 1.2793117 41.090515 9
19.010828 1.2677741 41.132908 9
19.38829 1.229881 41.112064 9
11.113782 1.5231991 41.021812 11.5
12.387135 1.5284486 41.055859 14
13.937341 1.6804037 41.085182 13
12.535967 1.8387748 41.027512 12
13.984518 1.8089571 41.080017 12
14.69184 -1.9284523 41.325012 3
-2.9307008 -1.7098835 41.229542 0
-2.015871 -1.7203586 41.210377 0
-0.85188055 -1.6629889 41.396378 0
10.489975 -1.6040107 41.215134 3
13.897833 -1.6715342 41.392548 0
19.223415 -1.6001958 41.261978 2
8.5553513 -1.405221 41.303291 3
10.475552 -1.4590143 41.312885 3
14.5158 -1.4420505 41.323376 2
14.670146 -1.4661967 41.229385 2
14.938787 -1.4133782 41.253654 0
15.350767 -1.4517057 41.290527 2
18.852501 -1.4363937 41.359852 2
23.464924 -1.5156949 41.245514 3
10.932587 -1.2235279 41.323349 2
14.28997 -1.2593738 41.399994 2
15.261016 -1.2615933 41.257805 2
16.892286 -1.2387258 41.35099 2.5
19.194187 -1.2756435 41.262291 3
3.631115 -1.1884676 41.272442 4
4.9717059 -1.1231989 41.269333 0
5.0601921 -1.0309873 41.386784 4
9.8824024 -1.084549 41.335976 2
10.488035 -1.06441 41.284393 4
10.885985 -1.0241578 41.216858 2
11.087783 -1.0980325 41.260303 2
14.503916 -1.0496862 41.324986 3
14.92296 -1.0231115 41.247505 3
15.368433 -1.0439869 41.34911 3
15.449733 -1.1548851 41.378582 4
16.929295 -1.0987527 41.322563 3
19.222292 -1.1830471 41.252113 3
-8.9416027 -0.89800525 41.209034 4
2.6680431 -0.90972841 41.22081 4
8.6568174 -0.90393883 41.376766 4
8.8358154 -0.8362906 41.210888 0
9.4100103 -0.87391829 41.242573 5
9.6645117 -0.82364094 41.21907 0
9.869545 -0.83841079 41.301262 4
10.483582 -0.99313307 41.37632 5
10.879664 -0.86997259 41.278198 2.5
11.105118 -0.91708642 41.286064 3.5
12.066191 -0.88918734 41.256989 2
12.972426 -0.90028346 41.335911 2
15.165157 -0.90248275 41.355907 3
16.918579 -0.89882761 41.307568 3
36.047192 -0.86297071 41.244064 6
3.3798966 -0.7612958 41.210205 4
3.8344088 -0.75204194 41.278503 2
4.2966695 -0.65776604 41.348999 2
4.9661808 -0.67943048 41.291328 2
8.5727911 -0.78125578 41.36412 4
8.8049803 -0.77729851 41.320564 2
9.1229954 -0.78601557 41.228817 0
10.524745 -0.63005924 41.280968 5
10.870873 -0.65736246 41.257248 2.5
11.104742 -0.72675878 41.320477 3.75
16.941593 -0.75044346 41.328094 4
17.195759 -0.74814892 41.234512 4
17.481131 -0.75765443 41.258682 4
18.877886 -0.70389622 41.245564 4.5
19.239523 -0.70266515 41.223545 4
-18.506157 -0.54590136 41.32811 6
-8.8962603 -0.484721 41.219982 5
-1.322626 -0.41270065 41.328701 4
10.864759 -0.49728146 41.270065 3.2
11.076993 -0.50138253 41.341534 3.6666667
19.251577 -0.46112955 41.234035 5
27.641417 -0.5261659 41.270954 6
2.7073326 -0.35891032 41.200912 5
10.500595 -0.32728213 41.358047 5.5
10.866038 -0.2772491 41.274067 4
11.084712 -0.34691328 41.299755 4.5
19.243725 -0.30411297 41.30302 5.6666665
27.332024 -0.34847292 41.393383 6
27.435564 -0.29434711 41.349552 7
27.835175 -0.36910909 41.392475 6
-18.37546 -0.18681677 41.347321 7
-8.8745499 -0.0088821054 41.206371 7
3.1106472 -0.11549772 41.285095 4.5
10.517083 -0.13704637 41.383469 6
10.873408 -0.10411435 41.277992 5
11.096741 -0.10617647 41.31432 5.4166665
18.896629 -0.13662377 41.213745 6
19.236977 -0.092766657 41.268574 6.5
27.310806 -0.12871669 41.359486 7
27.655602 -0.13704032 41.314224 7
3.1053157 0.11761493 41.27816 6
10.864903 0.053393584 41.295166 6.5
11.085335 0.10096344 41.345661 6.5714288
2.7095525 0.33185536 41.209717 8
3.1231377 0.28116256 41.277027 7.5
10.524898 0.34054288 41.353809 8
10.881919 0.27772549 41.311916 7.9000001
11.059645 0.34600163 41.356308 8
18.916878 0.37844622 41.355209 8
19.257486 0.32492182 41.280392 7.75
27.641731 0.38677382 41.226147 8
-18.444494 0.45459509 41.249237 8
-18.364662 0.49460775 41.354687 8
3.1182227 0.57913029 41.315792 9
10.528662 0.45719922 41.367287 8
10.867071 0.51997614 41.316658 9
11.083026 0.46646577 41.365898 8
19.258625 0.42436275 41.355827 8
27.307526 0.52462369 41.374542 7.6666665
27.650043 0.5071106 41.274853 8
10.886639 0.71427751 41.26408 9
11.107452 0.70018351 41.391064 8
19.241409 0.74670434 41.290718 9
27.318378 0.69129759 41.359951 8
27.430473 0.74731988 41.307522 8
27.640614 0.64193451 41.309162 8
10.510011 0.91299629 41.27116 9
11.077499 0.91943926 41.363201 9
19.257372 0.9130252 41.279633 9
23.422546 0.96347225 41.209023 9
10.521199 1.1622196 41.397041 9
11.108871 1.0728689 41.398571 9
23.351503 1.1683331 41.371101 9
23.438065 1.1838803 41.308655 9
9.6406269 1.3939631 41.223694 12
10.539528 1.3430814 41.372147 9
23.314209 1.2217329 41.362442 9
11.950714 1.5020517 41.264469 12
14.764963 1.4977099 41.246204 12
18.772419 1.5546873 41.258392 9
18.928564 1.5109668 41.215523 9
22.973999 1.4920163 41.380074 9
23.347191 1.5078501 41.376213 9
22.937752 1.6145035 41.392284 9
-2.5344229 -1.6800661 41.401844 0
12.133064 -1.6779646 41.51656 0
13.177063 -1.6637206 41.546799 0
13.812081 -1.6398987 41.434338 3
14.342089 -1.6452527 41.498356 3
16.748302 -1.6430813 41.572517 4
16.847237 -1.6744742 41.472443 2
18.765625 -1.6798468 41.533215 3
8.365448 -1.4010742 41.457573 3
14.28197 -1.4658751 41.436703 4
14.430811 -1.4557644 41.592876 2
16.8792 -1.4957765 41.480991 2
23.107094 -1.5604264 41.566048 3
23.448299 -1.5086209 41.46611 3
8.3508224 -1.2419193 41.434448 3
14.085373 -1.3117763 41.566956 1.5
15.543288 -1.2154608 41.408031 3
18.862976 -1.2162431 41.490379 3
27.340719 -1.3133128 41.426941 4
-18.247215 -1.0000021 41.439606 5
8.3410473 -1.0860174 41.55135 3.5
10.463624 -1.179718 41.40625 4
14.273661 -1.0665162 41.454288 4
15.14499 -1.0583103 41.499977 3
16.868454 -1.1023457 41.503353 3
18.867674 -1.1260034 41.510429 3
23.099747 -1.0986394 41.577137 4
23.45195 -1.0087166 41.585358 4
11.786043 -0.84703994 41.550171 2
12.920014 -0.84717917 41.487381 2
14.363004 -0.89997375 41.480938 3
16.879316 -0.99308634 41.551636 3
18.906536 -0.90878373 41.463398 5
23.069595 -0.98625708 41.588531 4
8.5144615 -0.7058053 41.585411 4
8.8197918 -0.77896726 41.54258 2
9.5699263 -0.70796597 41.417645 2
9.9401798 -0.75288165 41.583015 2
16.761024 -0.75164998 41.407967 4
18.880848 -0.71730107 41.48571 4.5
23.070992 -0.63287461 41.588253 6
27.281496 -0.7295078 41.576942 5
27.841955 -0.75637472 41.422321 5
-18.361473 -0.54236197 41.427292 6
17.053513 -0.57656276 41.429569 4
18.888063 -0.44723883 41.509113 5.6666665
23.091921 -0.54561812 41.574394 5
23.481865 -0.59150535 41.564678 5
23.671478 -0.56694907 41.566868 5
18.868858 -0.3215282 41.565857 5.5
23.094969 -0.229297 41.552357 6.1666665
23.536152 -0.22778772 41.581291 6
23.747295 -0.23513395 41.550064 6
27.307903 -0.22865033 41.438423 7
27.635632 -0.28844905 41.437866 7
-18.534649 -0.1812138 41.535591 7
11.157146 -0.10054781 41.40049 6
18.870657 -0.11110105 41.55394 6.6666665
23.094259 -0.064882748 41.567448 7
23.755798 -0.023174956 41.592781 7
27.845417 -0.073433533 41.407696 7
11.09647 0.12532127 41.432899 7
18.88464 0.081146874 41.554119 7
23.084583 0.036051288 41.582771 7
23.733454 0.043535482 41.591179 7
18.886076 0.338503 41.48312 7.6666665
23.086983 0.30910152 41.585751 7
-18.537714 0.52138895 41.528435 8
10.499001 0.43695402 41.402786 8
11.114764 0.47879389 41.422318 7.6666665
18.927725 0.5539273 41.572041 8
23.111797 0.52376038 41.571865 7.7777777
23.734442 0.47161651 41.582642 8
27.312271 0.5583955 41.433411 7
27.842442 0.49557656 41.418716 8
23.129227 0.64409935 41.556168 8
23.214699 0.65093768 41.569035 8
23.680832 0.62029755 41.580704 8
23.814917 0.74645013 41.575344 8
27.407768 0.61105037 41.45554 8
10.492053 0.81396216 41.420624 9
23.04986 0.82714128 41.597519 8
27.297428 0.86479038 41.412552 8
18.889545 1.0708946 41.582878 9
18.919682 1.3459904 41.44574 9
23.41057 1.2305586 41.534241 9
23.107176 1.4142157 41.58382 9
23.733952 1.6527486 41.410408 9
27.408417 2.8471694 41.561241 9
-18.401402 -1.738384 41.737953 4
-2.2204878 -1.7214382 41.606964 0
5.0032682 -1.7171661 41.715248 2
9.8713074 -1.6698892 41.79961 0
14.114882 -1.7275808 41.709465 2
14.726166 -1.7016795 41.731743 2
8.3954763 -1.5711831 41.688141 2
16.655098 -1.5744969 41.738785 2
18.88287 -1.5822028 41.675919 2
4.9550819 -1.2253424 41.775108 3
16.917887 -1.3793204 41.738781 2
23.089798 -1.0729719 41.652042 4.3333335
23.46595 -1.0422633 41.668217 4
8.3071756 -0.90393931 41.718933 4
15.17481 -0.81888556 41.790939 5
16.855152 -0.91839653 41.615356 3
23.473591 -0.99033105 41.781265 4
8.9504099 -0.68380654 41.685555 2
9.4036856 -0.63016969 41.730175 2
10.073878 -0.62494391 41.756927 2
17.007946 -0.63788223 41.61911 4
18.826212 -0.6448127 41.606155 4
23.074913 -0.63446027 41.683487 6
27.289846 -0.79263753 41.767906 6
-18.451536 -0.56336892 41.693375 6
18.884237 -0.44363004 41.62833 5
23.72784 -0.55095285 41.60228 5
18.888708 -0.3127993 41.653957 5.8000002
23.071491 -0.25430661 41.626522 7
27.273785 -0.35165191 41.688408 6
35.690289 -0.37073785 41.74773 7
18.871973 -0.078501105 41.630306 6.1999998
23.115814 -0.16339144 41.614254 7
27.265627 -0.060531393 41.693966 7
18.900995 0.091063306 41.663433 7
23.077543 0.045883279 41.615231 7
23.486303 0.013343081 41.607399 7
18.872049 0.31205457 41.647488 7.1999998
18.904087 0.49646631 41.637226 7.9166665
23.098881 0.45228586 41.626587 8
23.489498 0.47406292 41.601551 8
27.28376 0.49883616 41.717495 8
18.902016 0.63976407 41.653416 8
35.762192 0.95898068 41.702915 8
18.896555 1.1691729 41.672245 9
23.322592 1.1825008 41.623158 9
23.518375 1.0286125 41.603504 9
22.973066 1.2356124 41.649284 9
23.342627 1.2185748 41.618538 9
18.913422 1.426028 41.654945 9
5.2269402 -1.6639216 41.813751 0
8.2193146 -1.6815876 41.888336 0
10.248481 -1.6984324 41.857857 2
13.942064 -1.6669677 41.965141 0
14.830614 -1.6525284 41.866516 0
15.418654 -1.6406382 41.820724 0
15.777933 -1.6460171 41.914116 0
23.095785 -1.5265696 41.833057 3
23.070158 -1.2255721 41.89027 5
4.981967 -1.1216639 41.892265 2
23.142021 -1.018327 41.922844 4
23.36421 -1.089081 41.913971 4
23.424149 -1.1737192 41.828926 4
14.423187 -0.82642049 41.883404 3
23.178438 -0.95192814 41.880898 4
8.3583441 -0.76010579 41.866928 4.3333335
8.504612 -0.66912967 41.870281 5
8.69524 -0.63405526 41.828926 2
8.9087029 -0.63516748 41.942928 2
9.6012144 -0.60991025 41.835365 2
16.594891 -0.67988908 41.821693 4
16.951813 -0.62338388 41.907005 4
23.117146 -0.77163953 41.924225 6
-18.396383 -0.56369156 41.984882 6
23.027767 -0.23494238 41.977501 6
38.850212 -0.23319307 41.80859 7
39.234833 0.51789558 41.914165 8
38.873394 0.6850127 41.896568 8
27.315826 0.80111206 41.898373 8
1.4162637 -1.6692986 42.176899 0
5.2195172 -1.6936892 42.017818 0
8.3640337 -1.6222911 42.132591 2
14.476112 -1.651925 42.062775 0
4.9425979 -1.478561 42.029278 2
8.3253117 -1.4676865 42.154446 3
8.4302883 -1.3148339 42.12149 3
8.4082432 -1.175588 42.018852 3
8.5302143 -0.60609835 42.029823 5
-18.361179 -0.55080509 42.02417 6
39.251801 0.50388747 42.124836 8
35.713451 0.90872002 42.032799 8
23.283823 1.1933614 42.03566 9
23.287891 1.224622 42.054115 9
23.042519 1.4557323 42.15469 9
23.047335 -2.1752586 42.396969 2
5.7371116 -1.6773882 42.396786 0
6.7262435 -1.6977506 42.203884 0
23.042675 -1.6489904 42.385063 3
22.729836 -1.5343498 42.388615 3
8.4275198 -1.2126672 42.381237 3
8.7814512 -1.2417839 42.380524 2
4.9907551 -1.0105647 42.352028 2
8.7511692 -1.0359337 42.25695 3
4.958375 -0.88588792 42.302944 3
8.3111448 -0.8291136 42.368969 4
8.763545 -0.9024238 42.336441 3
1.3502111 -0.64662766 42.371845 4
4.9347277 -0.68097824 42.376488 3.5
8.4047394 -0.68547642 42.25481 5
-18.481928 -0.1974259 42.286903 7
0.95405179 -0.039976664 42.343246 6
-18.476744 0.49961546 42.379509 8
23.175304 0.57613325 42.219303 8
22.89555 1.3259579 42.346436 9
7.280292 -1.7091295 42.520317 2
22.622143 -1.6175406 42.466618 3
23.037626 -1.6060559 42.41872 3
22.700048 -1.5738447 42.454311 3
5.007926 -1.2748634 42.416161 3
8.3295212 -1.3383232 42.459969 3
11.949771 -1.3321691 42.52755 2
22.917221 -1.203964 42.452118 4
22.751175 -1.0150373 42.49387 4
22.940105 -1.1217706 42.544151 4
11.910213 -0.9670071 42.487812 3
22.726688 -0.98151064 42.471886 4
4.9239616 -0.69760597 42.456123 4
8.3330469 -0.75215185 42.475239 4
8.8246479 -0.71885729 42.42337 4
11.938196 -0.66667628 42.592407 4
14.197527 -0.68892634 42.4244 4
4.9441376 -0.46282518 42.525887 4
4.7627926 -0.39306724 42.453144 5
23.058105 -0.23310672 42.590881 6
-11.21446 -0.14367773 42.511311 6
0.60315019 -0.03038536 42.403122 6
1.1396086 0.003792569 42.505756 7
1.2349192 0.019766212 42.535515 7
49.568718 0.8243587 42.413467 8
22.874327 1.2459973 42.58366 9
1.2750839 -1.6606942 42.792038 0
2.1672421 -1.6634371 42.782867 0
4.6785588 -1.666231 42.669853 0
23.41703 -1.5926784 42.700493 3
1.411406 -1.2124455 42.773071 2
4.952714 -1.2220398 42.641548 2
8.327589 -1.2341423 42.692879 3
4.9728804 -1.0515233 42.631432 2
8.3237581 -1.1278259 42.679783 4
11.935099 -1.1947267 42.739738 2
4.9550014 -0.87220711 42.649803 3
-10.972393 -0.66447288 42.697166 5
4.9718938 -0.74242246 42.621471 3
8.3853045 -0.79531568 42.76548 5
8.4278803 -0.75122881 42.666519 5
23.076435 -0.62229329 42.675354 5
-18.522417 -0.55922461 42.705513 6
1.2806792 -0.58293176 42.687012 4
4.9927263 -0.42519322 42.614037 4
23.054752 -0.59881151 42.618652 5
1.1739898 -0.26295888 42.636902 5
8.5419741 -0.39237827 42.601933 5
23.080048 -0.2311278 42.648537 6
4.4077644 -0.15346108 42.671112 6
4.9386988 -0.18492219 42.74173 5
0.2648254 0.00053577125 42.622459 7
23.055536 0.057167232 42.670361 7
23.061581 0.58471864 42.63488 8
23.081772 0.64401799 42.707466 8
22.887432 1.4870704 42.635963 9
6.5262852 -1.6824901 42.984097 0
8.2453613 -1.6982925 42.830967 2
8.8105259 -1.4936972 42.842892 2
-10.943413 -1.2408087 42.837215 4
-10.933475 -1.1716557 42.803928 4
-10.579517 -1.1221527 42.807129 4
1.3646183 -0.87465662 42.823219 3
8.3495235 -0.98575622 42.939236 4
-11.007511 -0.66943878 42.893764 5
-10.997965 -0.65893364 42.84314 5
-10.586445 -0.62438375 42.813347 5
8.3757029 -0.65183985 42.952072 5
8.8155127 -0.70617515 42.870857 4
1.2537785 -0.44679004 42.814663 4.5
-18.821495 -0.21188627 42.837471 7
-11.199478 -0.32820821 42.948223 6
-10.809711 -0.22561987 42.807804 6
-18.539043 -0.18758366 42.834297 7
4.0539694 -0.17703041 42.814217 5
4.4819331 -0.073350117 42.842243 7
8.9968052 -0.12116569 42.955265 7
-18.534922 0.53163701 42.842411 8
23.032448 1.4231306 42.949459 9
4.989162 -1.4136236 43.082199 2
4.9267254 -1.0197744 43.161911 3
8.407383 -0.59408104 43.007088 5
-18.613983 -0.20555036 43.152313 7
-11.329882 -0.062905386 43.151474 7
8.6532841 -0.12035632 43.091965 7
9.0215349 -0.11598136 43.015995 7
-18.607624 0.53826046 43.162407 8
23.406548 1.1135459 43.15181 9
5.7903461 -1.6713097 43.266384 0
7.3310366 -1.673357 43.375179 0
8.9527445 -1.687014 43.230106 2
-11.05236 -1.267185 43.310242 4
-10.544254 -1.1471328 43.322067 4
8.3215427 -1.0919033 43.23101 4
4.9627266 -0.8839196 43.332001 4
8.3028765 -0.88862908 43.232376 4
-11.083179 -0.60506439 43.318115 6
-10.581478 -0.64347035 43.335289 5
4.8781033 -0.60528022 43.233704 4
8.3477211 -0.74122012 43.235855 5
23.437536 -0.50006509 43.229504 6
8.6072083 -0.30799523 43.312893 6
-11.3311 -0.09788537 43.368526 7
8.6517315 -0.1163723 43.287106 7
-0.41088355 1.164106 43.39249 11
23.417742 1.0577976 43.311829 9
0.24179578 1.2403803 43.320564 9
23.017324 1.5959888 43.212105 9
4.4432116 -1.6700389 43.510723 0
4.9283385 -0.97071344 43.560081 3
23.032812 -0.83552468 43.495049 5
-11.025777 -0.69086272 43.497192 5
8.8053846 -0.7841903 43.468105 4
1.2954454 -0.510113 43.516991 4
4.8840747 -0.58474797 43.586655 4
8.5752583 -0.29991412 43.550289 6
8.6620922 -0.050921187 43.557152 7
-18.448345 0.47094756 43.472672 8
23.024071 0.41102025 43.442856 8
-1.3578856 1.170025 43.421249 11
-0.43881536 1.1332154 43.448505 11
0.61788654 1.0882057 43.506554 11
1.8232346 1.2691221 43.417229 9
2.8698049 1.2551409 43.441734 11
22.99506 1.4717546 43.587582 9
8.9119473 -1.445251 43.679699 2
-11.065812 -1.2704737 43.603977 4
1.5621295 -1.2072265 43.746742 2
4.9334078 -1.3826725 43.782425 2
8.826808 -1.2658255 43.617115 3
8.8102932 -1.0547087 43.662148 3
4.9013739 -0.72875929 43.67411 4
8.8323507 -0.6718024 43.673309 4
4.8846216 -0.5978651 43.795124 5
-18.3741 -0.20665066 43.734219 7
-11.229385 -0.3483026 43.775982 6
22.985918 -0.24170034 43.774803 6
8.675106 -0.04622145 43.736652 7
17.145241 0.038791716 43.655609 7
4.7918906 1.3956485 43.709091 12
1.0490954 1.5203109 43.707378 12
1.2577114 1.4613085 43.703228 11.5
3.9040339 1.4145119 43.722511 12
4.0499921 1.4303222 43.713745 12
4.5333343 1.4566386 43.653286 12
4.7834549 1.4455545 43.724648 12
5.5183463 1.4725175 43.724869 12
5.8564329 1.4640954 43.697491 12
6.5682173 1.4511006 43.747738 12
6.7323232 1.5239311 43.746078 12
6.8373117 1.5505691 43.716892 12
8.2345963 1.4479778 43.741405 12
9.4634867 1.4315168 43.761959 12
10.998607 1.4134144 43.775135 12
11.003946 1.4219258 43.761944 12
13.063165 1.5367575 43.766479 12
13.507392 1.5618993 43.777916 12
-0.32034838 1.6161163 43.687977 12
6.917943 1.6575634 43.737617 12
14.628636 1.6355722 43.760147 12
4.8678255 1.915498 43.70797 14
5.1280918 1.9212806 43.711494 14
5.9975157 1.9068604 43.728893 14
6.3835716 1.9068887 43.741447 14
8.3851271 1.9200845 43.747292 14
9.825779 1.9390805 43.76733 14
12.435715 1.9542097 43.717651 12
14.405746 1.9476578 43.700829 12
4.8969755 -1.2305387 43.827358 3
4.9545708 -0.89375448 43.953197 3
-11.035018 -0.69614428 43.884472 5
1.3927474 -0.53840363 43.953876 4
-11.302608 -0.23965335 43.844334 6
23.4282 0.99029183 43.949875 9
22.943119 1.0238191 43.986645 9
-0.41914696 1.4108088 43.890793 11
6.3489828 1.4061089 43.952747 12
22.958252 1.5298729 43.847481 9
23.143703 1.5262756 43.891617 9
12.497503 1.6901479 43.948997 11.5
13.764821 1.7178465 43.985058 11
4.5690975 -1.6695125 44.170826 0
5.5535583 -1.6714172 44.112469 0
7.4702892 -1.6616795 44.135635 0
-10.590924 -1.1994847 44.151707 4
-11.071718 -0.71223801 44.04023 5
-10.763088 -0.71049058 44.189075 5.5
-10.567966 -0.67091882 44.134865 5
23.430611 -0.46354872 44.064331 6
22.997545 0.41318923 44.053993 8
15.894359 1.5895671 44.036114 11
16.116398 1.5702633 44.070915 9
17.57692 1.5864509 44.113132 9
17.666403 1.5100286 44.121532 10
15.831697 1.6676582 44.078484 9
16.09502 1.7246324 44.050087 11
17.375792 1.6891018 44.116924 9
17.697929 1.7633809 44.105385 11
17.801142 1.6479881 44.099792 11
5.3971944 -1.7096319 44.229244 2
8.4486246 -1.6890006 44.3363 0
4.9541955 -1.4440391 44.218582 2
8.8696957 -1.2614758 44.21199 3
22.997898 -1.2131234 44.340126 4
4.9068298 -1.0543445 44.29805 3
8.3983831 -0.87370735 44.315681 5
8.8394279 -0.81687123 44.268021 4
4.8967042 -0.67731076 44.265759 4.3333335
22.980629 -0.62949193 44.302521 5
22.976322 -0.23338947 44.269279 6.5
22.990883 0.033052295 44.301022 7
22.98489 0.58584321 44.316704 8
-1.4843309 0.95096266 44.333363 9
13.544423 0.84640938 44.39175 9
14.538037 0.86827201 44.368088 9
-0.70948875 1.1773649 44.354111 9
15.979548 1.5169771 44.281849 11
16.306768 1.4597197 44.258438 9
22.821321 1.5209132 44.286797 9
22.951561 1.6195376 44.290245 9
4.931283 -1.6240461 44.583187 2
5.0035396 -1.6775355 44.505386 0
6.0970545 -1.6581464 44.550655 0
-10.651291 -1.2323906 44.55254 4
4.9240341 -1.3172932 44.500786 2.5
4.8923426 -0.70742476 44.422474 4.5
9.0446529 -0.47069967 44.436478 5
23.432362 -0.4162057 44.563274 6
9.1438847 -0.23430969 44.488644 6
8.6351585 -0.075699568 44.468716 7
9.2254353 -0.05120568 44.578747 7
23.404123 -0.15063284 44.588261 7
38.798996 -0.19519441 44.527176 7
23.43454 0.35838425 44.594997 8
-0.93666649 0.88104659 44.414776 9
8.8509312 0.85490441 44.491215 9
9.7523174 0.836658 44.502304 9
-0.69556093 1.0127871 44.428619 9
-0.40480864 1.1873612 44.465626 9
0.46352348 1.1484298 44.457947 9
1.7932751 1.0363885 44.57542 9
2.5615819 1.1462587 44.536503 9
2.9583125 1.1868497 44.544384 11
1.2200512 1.2054025 44.482193 9
23.433023 1.3162071 44.569504 9
6.2586432 -1.6888763 44.704231 0
7.949306 -1.6709529 44.635666 0
8.8771248 -1.6007469 44.719822 2
-10.566515 -1.2324876 44.724319 4
8.8889351 -1.3132997 44.642933 3
4.9014215 -1.174706 44.64114 3
-10.579666 -0.69454259 44.735752 5
4.8485518 -0.71172875 44.734619 4
23.445061 -0.70388007 44.72744 5
4.8777318 -0.5891602 44.62751 4
22.956093 -0.29362422 44.768944 7
0.33680987 0.86232316 44.707165 9
0.71118319 0.9140175 44.636269 9
6.4882498 0.95165759 44.642132 9
1.7462862 1.0624651 44.639565 9
3.277745 1.0699081 44.617027 9
3.4629211 1.1491088 44.655167 11
3.6086624 1.1316755 44.645332 11
4.1842718 1.1849469 44.651554 11
4.9179387 1.1171595 44.651432 11
5.0997562 1.1440465 44.650089 11
5.3629866 1.1929754 44.624897 11
5.9025536 1.1047659 44.669159 11
6.9200401 1.1260545 44.670254 11
8.1128139 1.1123533 44.649529 11
8.2324934 1.0751928 44.674175 11
9.0446434 1.1373358 44.679169 11
5.0793614 1.2065119 44.634529 11
6.5500002 1.2165509 44.670567 11
7.9446907 1.2011969 44.683449 11
23.016777 1.8795476 44.600071 9
23.441349 -0.44341847 44.841694 6
22.950489 -0.26452732 44.87299 7
23.392296 -0.23489383 44.844181 7
23.443977 -0.36917949 44.960506 6
-10.908351 -0.082555085 44.954948 7
22.933842 -0.15571125 44.912254 7
22.984039 0.31156218 44.919903 7
23.448349 0.39626557 44.990898 8
-18.394573 0.51455015 44.875225 8
10.149618 1.1361314 44.840057 11
23.411907 1.3423059 44.995487 9
8.548439 -0.48558551 45.139397 6
23.430761 -0.42681605 45.057529 6
22.934723 -0.23212855 45.06469 7
23.397415 -0.21955407 45.127254 7
8.6800756 -0.15239465 45.06337 7
22.92618 -0.15817909 45.024376 7
23.424339 -0.13220054 45.059666 7
13.083999 0.95583194 45.046322 9
13.400316 1.0130696 45.089005 9
2.7636156 -1.6815308 45.396481 2
23.005934 -0.72289753 45.278503 5
23.011627 -0.27849126 45.24828 6
22.991467 0.061076328 45.307045 7
23.007439 0.7156291 45.312859 8
23.452644 1.3927274 45.234711 9
2.5662298 -1.8494977 45.557076 2
2.2640591 -1.6819264 45.467426 2
3.0035639 -1.7071303 45.496536 2
4.4467802 -1.6954803 45.560833 2
8.6579113 -1.7083681 45.532158 2
39.312462 -1.5260967 45.494011 5
22.94223 -1.2288653 45.495033 4
22.947939 -0.64697897 45.544182 5
22.94709 -0.24752715 45.483978 6.5
22.936934 0.021946669 45.450943 7
23.43601 0.36421806 45.47646 8
22.957031 0.57628596 45.451313 8
16.850454 0.870471 45.524239 8
17.412991 0.86936384 45.433205 8
19.097359 0.88122648 45.537033 8
23.4112 0.99415743 45.452766 9
23.384726 1.1306037 45.590828 9
2.3683901 -1.6052799 45.643913 2
2.2726083 -1.2536502 45.617973 3
2.5451403 -1.365878 45.604725 3
3.0534365 -1.3238943 45.606361 3
2.2051105 -1.1779339 45.652641 3
2.8704998 -1.0825907 45.679546 4
-8.3478794 -0.65671057 45.648006 5
23.448662 -0.7078976 45.75296 5
-8.2861691 -0.30452418 45.68824 6
23.442411 -0.35453874 45.653748 6
23.40535 -0.19363792 45.63253 7
23.43383 0.38069779 45.70396 8
22.949419 0.43385118 45.769894 8
22.917742 1.3104043 45.749523 9
23.394571 1.2320931 45.629074 9
23.427147 1.4623729 45.675041 9
-8.4726133 -1.2118918 45.946938 5
-8.6381235 -1.0255857 45.919411 5
-8.1403809 -1.1600521 45.984833 4
-9.8752766 -0.72923166 45.837376 5
-8.8354025 -0.6578908 45.999084 6
-8.8078709 -0.4995051 45.985123 6
2.7420673 -0.44490802 45.988701 6
3.0908697 -0.58047265 45.974487 5
-8.2887173 -0.32833153 45.814583 6
2.7020621 -0.31005365 45.959076 6
3.1053417 -0.28041869 45.975952 6
-8.2999973 -0.059968494 45.865158 7
