# .PCD v0.7 - Point Cloud Data file format
VERSION 0.7
FIELDS x y z intensity
SIZE 4 4 4 4
TYPE F F F F
COUNT 1 1 1 1
WIDTH 1271
HEIGHT 1
VIEWPOINT 0 0 0 1 0 0 0
POINTS 1271
DATA ascii
-9.0294895 -1.5935876 45.893707 4
-8.4726133 -1.2118918 45.946938 5
-8.2757244 -1.3212969 45.956245 4.1999998
-5.6795774 -1.5997208 45.854507 3
-5.4745431 -1.5972259 45.943813 3
-4.1313853 -1.5703865 45.659813 4
1.8641917 -1.3759192 45.613873 5.8571429
2.2194533 -1.3395857 45.61327 5.4000001
2.5702662 -1.3422259 45.644188 4.0625
2.9972284 -1.3820134 45.683052 3.1428571
3.3250518 -1.4620707 45.939865 3
22.914856 -1.2254514 45.908161 4
23.451454 -1.2464792 45.672401 4
29.100101 -1.5002592 45.73241 6
38.741337 -1.5219767 45.839722 5
38.901085 -1.3846991 45.73867 6
39.310928 -1.528958 45.714928 5
-13.063043 -0.9055407 45.797302 5
-12.719494 -0.85358053 45.767735 5
-11.978157 -0.81984133 45.790279 5
-9.2363968 -1.0562975 45.867172 5
-8.5224295 -1.1213813 45.88773 4.8000002
-8.1769838 -1.127671 45.983463 4.3333335
1.6759366 -0.97953409 45.656025 6
2.222194 -1.1583134 45.628666 3.6666667
2.4692631 -1.0997241 45.809254 4
2.9784925 -1.0189698 45.841827 4.3333335
4.2386217 -1.1696028 45.65448 3
23.435137 -0.80346435 45.723728 5
38.765827 -1.0830013 45.772923 6
39.289448 -0.92311454 45.744141 6
-14.09201 -0.53011388 45.739574 6
-13.869778 -0.48131222 45.742599 6
-13.471866 -0.45791376 45.769566 6
-13.008372 -0.42883134 45.763992 6
-12.6181 -0.47486171 45.776043 6
-12.304901 -0.46424904 45.829105 6
-11.735595 -0.55472749 45.802002 5.6666665
-11.388157 -0.64713883 45.832664 5.5
-10.924747 -0.73655343 45.860382 5
-10.667318 -0.56355059 45.870331 5.75
-10.345863 -0.57444382 45.882435 5.6666665
-9.804718 -0.68815958 45.88456 5.1999998
-9.2110901 -0.66072905 45.840416 5
-8.8216362 -0.57869792 45.992104 6
-8.7305555 -0.66320086 45.822983 5
-8.311986 -0.65617323 45.725277 5
-7.8524485 -0.63875592 45.936565 5
2.7143366 -0.55306613 45.982765 5.5
3.0908697 -0.58047265 45.974487 5
12.999874 -0.69380957 45.746365 4
15.034847 -0.78991318 45.809071 4
15.209105 -0.54293287 45.938316 5
23.010687 -0.5350607 45.864124 6.3333335
23.448755 -0.71861523 45.767567 5
38.736221 -0.78951353 45.869698 6
38.888287 -0.75831795 45.878635 7
39.22958 -0.49181521 45.812733 7
-18.632723 -0.24577959 45.906342 7
-18.205355 -0.2596924 45.899799 7
-17.512472 -0.26328811 45.782852 7
-15.912048 -0.060511451 45.648376 7
-15.451839 -0.064824805 45.647964 7
-15.082898 -0.043576315 45.669209 7
-14.595598 -0.20871305 45.71418 6.5
-14.334808 -0.063303649 45.700504 7
-13.771318 -0.13143407 45.692551 7
-13.509556 -0.20250259 45.75214 6.6666665
-12.411417 -0.38224748 45.805695 6
-12.196321 -0.39235654 45.833981 6
-11.709613 -0.2845042 45.800823 6.3333335
-11.352569 -0.36357486 45.840683 6
-10.926887 -0.22083922 45.846718 6.4000001
-10.731935 -0.33993798 45.873085 6
-10.325336 -0.34686327 45.864269 6
-9.8340931 -0.3123571 45.867584 6.1428571
-9.4792051 -0.18424904 45.884197 6.3333335
-9.0196123 -0.30767485 45.719997 6
-8.559557 -0.20918915 45.674885 6.4000001
-8.2622547 -0.20801051 45.839428 6.4117646
-7.7390962 -0.23740406 45.949223 6.1999998
-7.3742566 -0.27428553 45.952652 6
-7.0340195 -0.26298597 45.976494 6
-6.5633726 -0.26005334 45.975975 6
-6.1231494 -0.25117242 45.995373 6
2.715168 -0.14116964 45.978245 6.6666665
3.1045012 -0.26462233 45.976494 6
22.965406 -0.25091511 45.8657 6.8000002
23.437412 -0.21905407 45.712868 6.625
35.642372 -0.2903876 45.974312 7
38.713707 -0.28652382 45.860397 7
39.290859 -0.37139985 45.776817 7
-18.385124 0.3914485 45.869331 7
-17.937899 0.32909286 45.916397 7
-17.364256 0.32455808 45.93343 7
-16.826315 0.32042345 45.975693 7
-16.725599 0.35138148 45.956104 7
-15.814459 0.11672831 45.618465 7
-14.988224 0.09860009 45.650566 7
-14.55073 0.12362614 45.679489 7
-13.910423 0.11755121 45.6856 7
-8.3260641 0.002472423 45.889481 7
-5.4210243 0.058311835 45.990299 7
2.6570244 0.21672785 45.982182 7
3.1130705 0.089128196 45.992363 7
22.950691 0.33861557 45.739529 7.25
23.414288 0.36743331 45.831959 7.9003754
-18.621834 0.57926518 45.814938 7.9869375
-18.170778 0.54373741 45.919281 8.0644379
-17.825079 0.58708417 45.902905 8.0610828
-17.452484 0.58143556 45.943325 8.0637226
-17.026409 0.58452952 45.948357 8.0575504
-16.621351 0.52855283 45.962116 8.0701666
-16.16786 0.48519403 45.982498 8.0705004
-11.666286 0.52186656 45.813446 8
-10.827596 0.58557665 45.863846 8
-9.7580862 0.50833142 45.917007 7.5
-9.5290203 0.48902836 45.916569 7.5
-9.0371037 0.5138973 45.985756 7
-8.5117826 0.59377885 45.927937 7.6666665
-8.3294525 0.50167745 45.928497 8
2.7221622 0.4887217 45.982067 8
3.3049979 0.74806029 45.969383 8.1746254
22.988888 0.57379353 45.822586 7.9081054
23.416941 0.45913216 45.775223 7.9577775
35.663006 0.65403646 45.953232 8
38.909847 0.75668216 45.931004 8.1225004
39.265785 0.53610581 45.799381 8
-16.622635 0.81084913 45.995979 8.0109997
-10.85341 0.80022579 45.847038 8
3.3847547 0.92791724 45.97155 9.0197506
3.6514909 0.92466348 45.934761 9
4.0567398 1.160102 45.672974 9.0165005
5.6966958 0.88601488 45.620201 9.0395002
6.8440046 0.88781977 45.636879 9.0467501
10.515444 0.87230176 45.649689 9.0559998
11.395746 0.90672874 45.907681 9.0192003
14.044352 1.0237086 45.637257 9.0375004
22.31715 0.80817604 45.657944 8.1175003
-18.509315 1.4182348 45.704704 9.0454998
2.7563457 1.4294529 45.792908 9.6814995
2.8141241 1.5206256 45.971596 9.1674995
10.547571 1.4930677 45.901165 9.0994997
11.048885 1.4546103 45.890984 10.039812
19.240128 1.5033584 45.655483 9.0205002
22.904276 1.4347959 45.798119 9
23.403852 1.4085212 45.772785 9.0218334
-16.242348 1.9871486 45.993279 9.0705004
-8.4163361 1.6841685 45.954895 9
11.032812 1.6709833 45.746033 11.0835
19.30072 1.7304144 45.819321 11.058208
22.927111 1.6624565 45.729763 9.0845003
23.404755 1.6066643 45.974167 9
-18.273546 2.0835974 45.918808 9.0675001
23.394981 2.5108209 45.608349 11.085
1.7773472 -4.0962691 46.390709 4
-5.3642683 -3.7854865 46.269169 5
-3.2559185 -3.7728813 46.308666 5
2.581728 -3.6359761 46.313995 3
-5.3160634 -3.4186933 46.248623 5
-5.1296005 -3.5386217 46.28669 5
-3.8290374 -3.4640179 46.29369 5
-3.3855946 -3.5270774 46.352966 5
-1.3288827 -3.5170381 46.386787 5
1.8940976 -3.4079037 46.355148 4.5
2.2535391 -3.398746 46.341019 4
1.909012 -3.0291553 46.364815 4.5
2.218528 -3.0613482 46.339264 4.3333335
4.396821 -3.0303621 46.39431 2
-8.2006483 -2.6000659 46.306953 3
-7.8393507 -2.6323977 46.358353 3
-7.4707699 -2.6148455 46.35043 3
-7.076725 -2.6437454 46.354408 3
-6.7115297 -2.6301022 46.355591 3
-6.2071929 -2.5048287 46.237759 4.3333335
-5.8044529 -2.4982929 46.187256 5
-5.3017235 -2.6401944 46.225983 4.5
-5.1126142 -2.4086659 46.225151 5
-4.6358633 -2.4496446 46.232265 5
-4.2339492 -2.5561731 46.251926 5
-0.99528396 -2.5220468 46.330376 5
-0.70521867 -2.6897566 46.335617 5
2.1318212 -2.5440762 46.348473 4.1999998
38.143349 -2.4712663 46.311302 4
38.916374 -2.5344629 46.294502 4
-9.7824717 -2.0352566 46.258957 4
-8.0757561 -2.1173754 46.302029 3
-7.6887503 -2.0633869 46.327751 4
-6.1230583 -2.0253961 46.201893 4.6666665
-5.8220339 -2.1304417 46.157284 5
-5.4357743 -2.0656977 46.172756 5
-4.9534936 -2.0967228 46.189816 5
-4.5912194 -2.16645 46.215103 5
-4.2815652 -2.0419297 46.18874 5
-3.7836349 -2.2054222 46.229404 4.8571429
-1.0702786 -2.2450538 46.301388 5
-0.51287544 -2.034636 46.302551 4
1.8873843 -2.3761277 46.300156 5
3.5893779 -2.0260456 46.319729 2
4.1957235 -2.181308 46.361275 2.5
33.185513 -2.0221362 46.295937 4
36.661507 -2.3375466 46.274899 4
-11.762747 -1.626036 46.171661 5
-7.76088 -1.9803816 46.306862 4
-6.6083698 -1.9731952 46.310783 3
-6.262979 -1.6333249 46.122368 3
-5.4302859 -1.6224709 46.209354 6
-4.9240131 -1.8065809 46.144722 5.25
-4.4967599 -1.6057156 46.05629 5
-4.3906608 -1.9971422 46.168941 5
-3.8271825 -1.8488235 46.14397 5
-1.0269245 -1.6152465 46.305992 6
-0.66406733 -1.6145005 46.291203 6
0.63013029 -1.6077037 46.211521 2
3.0548043 -1.9532185 46.292664 3
3.9620583 -1.6596324 46.172909 3
4.2828245 -1.6951996 46.297359 2.6666667
4.6507387 -1.6578854 46.378216 2
4.9307995 -1.6373528 46.384888 2
5.4060092 -1.6525999 46.266373 2
5.9284153 -1.6946323 46.344826 2
7.3828363 -1.7011173 46.137489 2
9.3879328 -1.6697874 46.320541 2.5
27.949177 -1.6293384 46.312424 4
28.221371 -1.6331979 46.077179 4
37.851974 -1.6091001 46.000999 5
-11.804626 -1.4624634 46.290138 4.1428571
-11.428339 -1.4287812 46.263893 4.3000002
-11.022863 -1.4112483 46.239365 4.2727275
-10.625081 -1.3740079 46.245155 4.4000001
-10.272137 -1.3566978 46.26408 4.4000001
-9.8248911 -1.3393763 46.273643 4.3636365
-9.3764257 -1.327441 46.298256 4.3846154
-9.0232801 -1.3243939 46.274006 4.1111112
-8.7202435 -1.3540566 46.272804 4
-8.157136 -1.3512949 46.238415 4.4444447
-7.8603978 -1.3832309 46.30946 4.5454545
-7.4448056 -1.3467302 46.311981 4.4166665
-6.9979267 -1.4005884 46.211178 4.4545455
-6.5981469 -1.3881075 46.248741 4.375
-6.2010069 -1.3833852 46.201786 4.5454545
-5.7887287 -1.382809 46.19516 5.2272725
-5.3941355 -1.4163949 46.19865 4.9230771
-5.004416 -1.3837439 46.222157 5.2352943
-4.5736904 -1.3438334 46.235378 5.2352943
-4.1951766 -1.3533652 46.251976 5
-3.8490677 -1.3404872 46.219543 5.1538463
-3.5548024 -1.2593608 46.167503 6
-1.2782873 -1.2884016 46.276413 6
-1.0480219 -1.4127831 46.295181 5
-0.56459796 -1.3994346 46.239098 5
-0.3625201 -1.218084 46.358612 5
0.45697403 -1.2339669 46.232933 3
0.99795437 -1.5840482 46.236233 2
2.9378808 -1.2765383 46.145123 4.25
3.3847466 -1.3870939 46.197338 3.3
3.9642286 -1.5391636 46.343288 3
4.2153444 -1.4140083 46.346313 3.1538463
4.5785518 -1.4077437 46.358772 2.8
4.9711609 -1.3999193 46.369522 3
5.4330025 -1.435622 46.373375 2.5
5.7378478 -1.3515282 46.386921 2.6666667
6.018806 -1.3871615 46.389336 2.5
6.9465408 -1.272876 46.390633 3
7.3199654 -1.2914567 46.379166 3
7.7548523 -1.3172054 46.381893 3
8.1987581 -1.4200319 46.368294 3
8.6638193 -1.4801449 46.358959 3
9.0553627 -1.4837923 46.366268 3
9.3636646 -1.388661 46.383503 3.125
9.6027641 -1.257866 46.299278 4
10.932312 -1.4488996 46.219116 2.3333333
22.93075 -1.3068656 46.075874 4
33.815155 -1.2114621 46.272514 5
34.16711 -1.2379509 46.255817 5
34.55983 -1.2543378 46.269371 5
35.014198 -1.2886021 46.252113 5
35.343731 -1.2999141 46.26601 5
35.769016 -1.3613573 46.104252 5
36.331657 -1.3688573 46.034134 5
37.048134 -1.4079238 46.252457 5
37.607483 -1.5371342 46.285812 5
38.653671 -1.4912009 46.105484 5
39.093788 -1.5235687 46.270931 5
39.305698 -1.5340503 46.104191 5
-11.775454 -0.81409055 46.344345 5
-11.458196 -0.94618744 46.218452 5.090909
-10.951629 -0.94976759 46.219597 5
-10.623907 -0.9456507 46.221642 5.0999999
-10.207533 -0.95559794 46.232422 5.2857141
-9.8018494 -0.93206412 46.246983 5.25
-9.4050303 -0.90765339 46.268253 5.2727275
-9.0123129 -0.9432376 46.269276 5.4166665
-8.5866613 -0.97242498 46.296619 5.4375
-8.1579132 -1.0395131 46.19944 4.9375
-7.8046331 -1.0225993 46.301712 5.0625
-7.3800125 -0.9942258 46.227043 5.3333335
-6.9982643 -0.96737933 46.18058 5.3888888
-6.5641737 -1.0148444 46.204433 5.3157897
-6.1752825 -1.0305572 46.175457 5.3499999
-5.8116598 -1.0303731 46.185871 5.1999998
-5.3777881 -1.0308058 46.153839 5.3809524
-4.9728279 -1.0145596 46.175285 5.2941175
-4.6041045 -0.99598706 46.164871 5.4375
-4.179781 -1.0260626 46.162949 5.5555553
-3.8055413 -1.0277321 46.166969 5.6315789
-3.5302951 -1.0408502 46.113148 6
-2.2321916 -0.89231461 46.395233 4
-1.7574564 -0.86435926 46.382866 4
-1.3774217 -1.0219597 46.292202 5.125
-1.0035915 -1.0517747 46.357563 4.28125
-0.47332746 -0.9607811 46.271992 4.8000002
-0.25401822 -0.99709231 46.305267 4.5
0.62528467 -1.1714339 46.207474 3
0.92828798 -1.1563935 46.224121 3
1.3015485 -1.1382639 46.240032 3
1.8488582 -0.86429596 46.329052 6
2.2118917 -0.96981257 46.311852 4.8000002
2.6290944 -0.9229058 46.293987 4.8499999
3.0359793 -0.93089539 46.205685 4.4333334
3.3830578 -0.99128848 46.2206 4.1055555
3.8833797 -1.0041893 46.261124 4
4.2132931 -0.98435789 46.340614 4.2727275
4.6054759 -1.0126474 46.341938 3.5
5.0150552 -1.0114523 46.358364 3.5714285
5.4227848 -1.0447448 46.375668 3.6666667
5.869597 -0.97947901 46.379337 3.5
6.2987652 -1.0554291 46.390759 3
6.663784 -0.97390032 46.392731 3.3333333
7.0331926 -1.0071247 46.39579 3.25
7.437696 -0.94994134 46.391624 3.5999999
7.8274198 -0.96876985 46.391209 3.6666667
8.1191339 -0.91701478 46.380756 4
8.559967 -1.0009501 46.362129 4
8.9926777 -1.015554 46.366409 4.3333335
9.3860006 -0.99364239 46.385708 4
10.928779 -1.1321025 46.237793 3
23.353426 -1.1976415 46.203949 4
32.598564 -1.1489308 46.234871 5
33.10096 -1.170675 46.271523 5
33.260674 -1.1878905 46.239052 5
35.595078 -0.81646299 46.061401 6
35.763618 -0.82294285 46.041161 6
38.749638 -1.1894056 46.28001 6
39.06221 -0.9466033 46.200436 6.3333335
39.257832 -0.94899768 46.113022 6
-12.217172 -0.43169063 46.364803 6
-11.664673 -0.51915658 46.202732 6.0833335
-11.441267 -0.58220392 46.227482 5.9285712
-11.003174 -0.58449364 46.244442 6
-10.569402 -0.56518668 46.228794 6.1999998
-10.163931 -0.58244044 46.240036 6.1538463
-9.7778406 -0.55807674 46.254799 6.1764708
-9.3840771 -0.57248062 46.284767 6
-8.9632092 -0.58224249 46.225277 5.969697
-8.6126852 -0.58862442 46.181801 6
-8.208025 -0.57136738 46.223457 6.0975609
-7.7907434 -0.61203724 46.29977 5.916667
-7.3999639 -0.59851706 46.337425 6.1428571
-6.9919934 -0.57893664 46.335377 6.2183905
-6.6041727 -0.6038999 46.293293 6.0464287
-6.1954079 -0.57227033 46.287216 5.9210525
-5.7969041 -0.5923596 46.289673 5.869565
-5.414813 -0.58709872 46.253773 5.90625
-4.9848623 -0.58350885 46.193539 5.7142859
-4.6054025 -0.56904042 46.205162 5.6428571
-4.1967402 -0.58585072 46.225693 5.7818179
-3.8058956 -0.56835407 46.17926 5.7857141
-3.4427021 -0.57988793 46.232498 6.3333335
-2.4013314 -0.47752225 46.395027 5
-1.4001956 -0.4342896 46.285511 5.5999999
-0.97890359 -0.59314305 46.253349 5.2285714
-0.56203932 -0.61249632 46.2519 5.75
-0.23402414 -0.53167284 46.249744 5.5999999
0.26389503 -0.77237105 46.217106 4
0.5657379 -0.63120502 46.220097 4.3333335
0.91618395 -0.73000056 46.230614 4
1.3546925 -0.70450515 46.284729 4
1.8674085 -0.54776198 46.301632 6.8461537
2.1996939 -0.56497824 46.313389 6.2916665
2.5943394 -0.56633741 46.27113 6.0714283
3.0140011 -0.54157406 46.188553 5.4097228
3.3830881 -0.59177703 46.214844 5.0294118
3.7906158 -0.5412969 46.285065 4.8000002
4.2380557 -0.56544167 46.344269 5
4.6254959 -0.62297678 46.355381 4.5454545
5.0184689 -0.60443437 46.36726 4.5833335
5.4140649 -0.61178595 46.378227 4.5384617
5.8002806 -0.60116649 46.383171 4.6999998
6.1916089 -0.5619939 46.390942 4.5
6.5680103 -0.57316232 46.393017 5.8333335
6.9089041 -0.51029974 46.380226 5
7.5018325 -0.52661306 46.377304 5
7.794971 -0.50990301 46.367725 5
8.2327795 -0.48334408 46.358566 5.2222228
8.791976 -0.54896861 46.340843 5
8.9360571 -0.5432561 46.355083 5.6666665
9.3754816 -0.56779772 46.378967 4.8333335
9.7593145 -0.71935225 46.387871 4
10.400074 -0.4253782 46.346531 5
10.946542 -0.62389624 46.259392 4.4444447
11.39976 -0.65377748 46.181862 4.2857141
11.92804 -0.55439234 46.138817 5
14.941935 -0.54451919 46.001972 5
18.231586 -0.50643271 46.376034 5
21.67551 -0.5685339 46.320534 5
22.163202 -0.62857789 46.322086 5
22.603542 -0.6485132 46.316525 5
22.941267 -0.58113599 46.233227 5.6666665
23.374001 -0.64167929 46.227425 5.2222223
33.21122 -0.6437192 46.221024 6
35.767429 -0.66545677 46.066856 6.125
36.701775 -0.78343189 46.19997 6
38.72636 -0.79093349 46.291367 6
38.887829 -0.70156109 46.026093 7
39.23127 -0.47196218 46.187279 7
-12.187687 -0.13087241 46.287922 7
-11.782695 -0.1945661 46.210098 7
-11.408565 -0.21885403 46.20985 7
-10.997445 -0.24316919 46.23703 6.9499998
-10.580894 -0.246832 46.219704 7
-10.19219 -0.25030604 46.221195 7
-9.7745152 -0.22060204 46.242737 7
-9.3666201 -0.21257468 46.28508 6.8333335
-8.9682379 -0.21851392 46.22496 6.8965516
-8.6001091 -0.22928625 46.160038 6.6944447
-8.1659365 -0.22962289 46.13245 6.7477479
-7.8150878 -0.22715388 46.236095 6.6315789
-7.3992696 -0.2194034 46.302597 6.6923075
-6.9895439 -0.22196576 46.315899 6.75
-6.5916834 -0.21459168 46.290154 6.7719293
-6.1920147 -0.21006727 46.303181 6.75
-5.7874446 -0.20429434 46.290703 6.6399999
-5.3610659 -0.2053387 46.320351 6.7222223
-5.011837 -0.21852593 46.316048 6.5352941
-4.6251259 -0.18969455 46.362167 6.6500001
-4.2108502 -0.18319428 46.366508 6.4705882
-3.8291385 -0.16447008 46.337914 6.5
-3.41872 -0.15444928 46.353012 6.546875
-3.0188649 -0.12330011 46.329796 6.5384617
-2.5954092 -0.1229947 46.348732 6.54
-2.1947348 -0.10187478 46.310219 6.409091
-1.7647941 -0.14853795 46.320217 6.3399997
-1.3921398 -0.16398261 46.268757 6.2208338
-0.9901244 -0.15655312 46.259544 6.2172618
-0.56272304 -0.20186095 46.252186 6.3854165
-0.25064355 -0.23498169 46.260902 6.5238099
0.14878446 -0.17517653 46.255447 6.1100001
0.59595698 -0.13956629 46.237656 6.0555553
0.9809382 -0.18643612 46.228241 5.8166671
1.4306796 -0.14111261 46.269451 6.0476193
1.8898063 -0.14597592 46.282478 6.5705128
2.1752005 -0.19368973 46.301758 6.6173329
2.6238685 -0.19341855 46.2901 6.6280565
3.0397863 -0.15382694 46.194866 6.4488893
3.3615587 -0.17907754 46.220928 6.2549996
3.7817397 -0.18107462 46.253208 6.0606065
4.2085242 -0.18017948 46.335762 5.8904762
4.6093426 -0.18632638 46.346443 5.8921571
5.0087833 -0.1679811 46.358498 5.9685187
5.4106379 -0.15401931 46.367363 6.0287409
5.8040862 -0.1838329 46.371288 5.8616538
6.174891 -0.16315062 46.382168 6.2619047
6.5952039 -0.13812554 46.375351 6.3256235
7.017683 -0.13404626 46.368343 6.3759255
7.3518343 -0.13060683 46.372673 6.3931971
7.781918 -0.13677759 46.344891 6.5
8.1939745 -0.097926296 46.356796 6.7037039
8.5785961 -0.20627537 46.362583 6.333333
9.0180073 -0.094074078 46.358986 6.75
9.4816246 -0.12944767 46.387871 6.75
9.7986946 -0.22930074 46.364784 6.125
10.12252 -0.14502275 46.373474 6.5
10.525481 -0.064946465 46.367359 7
10.947514 -0.16816582 46.229816 5.8157897
11.454904 -0.1255796 46.177368 6.2666669
13.218203 -0.14505328 46.317955 7
14.07572 -0.25339061 46.393982 6
14.47443 -0.16648279 46.385338 7
14.902384 -0.173526 46.385567 7
15.419113 -0.18620157 46.390717 6.3333335
15.729876 -0.20361906 46.38755 6.5
16.29093 -0.1967185 46.376404 7
16.68269 -0.17214175 46.306931 6.5333328
16.993639 -0.2203331 46.380871 6.3333335
17.584272 -0.26850688 46.391479 6
17.735035 -0.2419256 46.276176 6
18.140438 -0.15087444 46.38356 6
21.41761 -0.13779536 46.356712 6.5
21.810318 -0.20087062 46.35091 6.5
22.138922 -0.26528025 46.366371 6
22.627174 -0.3133595 46.321598 6
22.973293 -0.27490503 46.267891 6.1999998
23.421165 -0.18203276 46.229614 6.5833335
31.93787 -0.19851655 46.276268 7
33.221924 -0.22960693 46.281139 7
35.496693 -0.36150163 46.365841 7
35.797543 -0.26788744 46.171188 7
36.05188 -0.29027495 46.085228 7
36.720856 -0.31610534 46.266415 7
38.704144 -0.28444016 46.253403 7
39.246521 -0.35595152 46.260174 7
-18.076286 0.35378748 46.134125 7
-16.304075 0.31650305 46.021145 7
-15.706058 0.34776366 46.050915 7
-15.14979 0.37768203 46.185425 7
-14.717955 0.34927976 46.116219 7
-14.272362 0.33610666 46.091846 7
-13.789721 0.29873914 46.136856 7
-13.512594 0.37225834 46.353554 7
-11.230543 0.3547636 46.247726 7
-9.8205595 0.39670688 46.264244 8.0298748
-9.4650183 0.39337546 46.244331 8.0605001
-9.0028629 0.38446233 46.273167 7.8122001
-8.6017799 0.384642 46.27739 7.7777772
-8.2991629 0.35686651 46.265133 7.2142859
-7.7893114 0.38706905 46.308617 8
-7.4028144 0.38299295 46.317291 8
-6.8982539 0.38181877 46.325783 8
-6.4990602 0.26011062 46.223537 7.6666665
-6.1643581 0.3837958 46.35606 8
-5.8117261 0.38062155 46.340137 8.0142498
-5.4204226 0.19089867 46.190113 7.5
-4.943244 0.19498099 46.196903 7.5072918
-4.6826839 0.3689703 46.345474 8.0148335
-4.2217216 0.20337474 46.209198 7.4097252
-3.8082521 0.20329249 46.206337 7.4540277
-3.3493648 0.26563209 46.16853 7.2554846
-3.0287559 0.21431899 46.164463 7.2803178
-2.5962164 0.16033988 46.181751 7.3000002
-2.2129114 0.26544923 46.264606 7.5072083
-1.7877191 0.21577939 46.251633 7.439301
-1.4056047 0.33109322 46.353214 7.8571429
-0.93841016 0.38038594 46.381512 8
-0.51891643 0.36999655 46.336945 7.8333335
-0.19222862 0.28953788 46.27689 7.2698417
0.20251894 0.20936269 46.271149 7.174242
0.56566286 0.26886916 46.288647 7.3318849
0.96923882 0.25904015 46.303543 7.340909
1.413224 0.24065195 46.298027 7.2298851
1.7627052 0.27274308 46.299358 7.3125
2.1905909 0.15216541 46.285892 7.2205882
2.610224 0.24386692 46.234974 7.4833326
3.067677 0.20713948 46.189564 7.4557662
3.3787637 0.23701011 46.229359 7.5015583
3.7652321 0.18201029 46.279964 7.3452377
4.221417 0.19321008 46.352551 7.2608695
4.6070509 0.22620308 46.358654 7.359375
4.9950867 0.24586843 46.359737 7.3391304
5.4157329 0.23570229 46.364906 7.208333
5.8238759 0.27066833 46.372276 7.4333334
6.1737547 0.29092956 46.376717 7.391026
6.5452175 0.21113069 46.37965 7.3833332
6.9164391 0.2824778 46.37952 7.5714288
7.3322058 0.32917589 46.378372 8
7.7785101 0.36391893 46.357445 8.0163002
8.1051502 0.33640009 46.376823 8
8.5713167 0.31783876 46.383129 8
8.948122 0.32065925 46.375172 8
9.482008 0.32394832 46.376274 8
9.7461538 0.32580039 46.381348 8.0402498
10.256948 0.32941824 46.386047 8.0812502
10.929426 0.16018423 46.238621 7.0058751
11.455798 0.29660282 46.190998 7.803328
12.404978 0.34627566 46.376709 8.0847502
12.929897 0.35086763 46.375046 8.0854998
13.300711 0.35423273 46.37764 8.0860004
13.880053 0.35962337 46.376488 8.08675
16.710686 0.27845764 46.266197 7.6127996
16.975388 0.37429088 46.391132 8.0860004
20.934362 0.34687474 46.344864 7
22.670963 0.14126781 46.358978 7
22.913811 0.19993216 46.213276 7.333333
23.414574 0.36693928 46.24678 7.8482227
35.607941 0.35766876 46.059769 7
-18.501619 0.60811287 46.068398 8.0299997
-17.838236 0.60054833 46.061249 8.0304995
-17.213156 0.54154909 46.05175 8.0360003
-16.984035 0.55904436 46.023426 8.0320005
-16.525133 0.57716262 46.055336 8.0300007
-16.160536 0.55219722 46.045319 8.0496359
-15.799621 0.54035389 46.08749 7.9808664
-15.39523 0.55671495 46.111481 8.0448923
-15.028434 0.57637411 46.10162 8.0591793
-14.613548 0.54721642 46.129009 7.9967752
-14.180291 0.5639922 46.155075 8.0505877
-13.776366 0.57189614 46.168919 7.9935875
-13.371044 0.56527776 46.18364 7.9949441
-12.978004 0.56088221 46.202465 7.8237104
-12.614546 0.59217292 46.194511 8.0082178
-12.205582 0.57936239 46.215076 7.8932896
-11.812519 0.52927679 46.219559 7.9425058
-11.393428 0.50346053 46.227051 7.9360962
-10.995994 0.51278031 46.231239 8.0125694
-10.568883 0.55846697 46.252224 8.0090761
-10.212136 0.54421347 46.265656 7.8950777
-9.8230591 0.57025474 46.268948 7.9466667
-9.4121618 0.54789895 46.291698 8.0151453
-9.0091867 0.56703949 46.260857 7.9428935
-8.6107578 0.56122828 46.289276 7.97715
-8.2082596 0.548392 46.303566 7.9091816
-7.8129272 0.53135288 46.329632 7.9913678
-7.4094987 0.54763901 46.342289 8.0014515
-7.0252633 0.53628665 46.343063 8.0037184
-6.6020036 0.49075025 46.302525 8.005785
-6.1931996 0.46373174 46.334454 8.0061998
-5.7937837 0.52826339 46.282024 8.0044994
-5.3992591 0.54679197 46.267696 8.0056391
-5.003191 0.54530841 46.23254 8.0044546
-4.6123462 0.55582923 46.204441 8.0040932
-4.2046208 0.56557626 46.212044 8.0043707
-3.8258436 0.55563974 46.202709 8.0017204
-3.4036479 0.56908089 46.227573 7.9726434
-3.0455265 0.58814096 46.217709 7.9229894
-2.6137152 0.525545 46.342525 8.0185003
-2.23106 0.53068572 46.344677 8.0187502
-1.8032919 0.5916189 46.346272 8.0404167
-1.3625665 0.6001755 46.284138 8.0111561
-1.0290059 0.62863153 46.293747 8.0195618
-0.53465068 0.5104441 46.278652 7.9913001
-0.18361248 0.52983606 46.270016 7.9742627
0.19993556 0.51427299 46.272865 7.7592173
0.59119719 0.5312435 46.293198 7.8786511
0.97630233 0.55050284 46.296967 7.9299116
1.3970431 0.53257215 46.30122 7.8445678
1.7741655 0.53336221 46.310753 7.8588476
2.1907723 0.56239545 46.298988 8.0598211
2.6264906 0.49863985 46.283768 7.9883757
3.0503891 0.48963815 46.193172 7.9814568
3.3884215 0.56596571 46.211319 8.0301704
3.8241835 0.64301544 46.348389 8.1852798
4.1939406 0.5893665 46.336903 8.0663624
4.6394439 0.56016755 46.355461 7.9823837
4.9941688 0.56041288 46.363705 8.033083
5.4080162 0.58012986 46.368294 8.054388
5.8052597 0.55167025 46.373718 7.9824705
6.1821551 0.54904747 46.380653 8.1214466
6.5836592 0.53995806 46.385212 8.0592747
6.9757047 0.57401013 46.386871 8.25
7.4272265 0.43537599 46.336456 8
7.8245134 0.6408484 46.36438 8.6000004
8.0703945 0.75058234 46.388687 9
8.6375313 0.40511745 46.338547 8
9.0714045 0.53134054 46.358128 8.333333
9.3133488 0.59601766 46.366272 8.5422497
9.6923141 0.41624683 46.342896 8.0852499
10.135933 0.42118871 46.344299 8.0860004
10.440231 0.42464188 46.342121 8.0865002
10.968993 0.53122759 46.237919 7.9792356
11.431151 0.71767133 46.105907 9
11.905163 0.42559975 46.375465 8.0839996
16.608509 0.46184197 46.30957 8.0147495
17.773834 0.42658979 46.377693 8
18.588289 0.63892955 46.35006 8.0915003
19.210522 0.65232009 46.339954 8.092
22.788048 0.52727222 46.324757 8
22.973715 0.63237464 46.216362 7.8980665
23.370283 0.45380688 46.269196 8.0147495
33.198132 0.56610656 46.237972 8
35.593918 0.50918627 46.100086 8
35.749382 0.54493529 46.127655 8.0146255
36.058037 0.58723646 46.063293 8
36.66967 0.58183289 46.209534 8
38.726498 0.68533808 46.19804 8
39.047874 0.66125387 46.196865 8.0592499
39.24205 0.54716432 46.209209 8
-16.488884 0.85146296 46.028656 8.0054998
-15.278482 0.82326734 46.097404 8.0060005
-14.053827 0.81001699 46.149521 8.0045004
-12.894232 0.80803072 46.26144 8.0815001
-12.464462 0.80716211 46.179512 8.0010004
-12.15275 0.80197895 46.275696 8.0819998
-11.387873 0.85385162 46.244041 8.0415001
-11.055493 0.97575724 46.249817 8.5
-9.7954073 0.94375539 46.248817 8.5419998
-9.0355854 0.85211098 46.274002 8.0422497
-7.7883682 0.91740447 46.312378 8.5
-7.4542069 0.94013959 46.310017 8.666667
-7.153019 0.96593374 46.274239 9
-6.1327591 0.95644182 46.324921 9
-5.8296485 0.93075895 46.316181 8.9515276
-5.3843861 0.88739252 46.211258 8.5
-5.0444217 0.89368349 46.180744 8.333333
-4.5880985 0.949067 46.279572 8.75
-4.2842398 0.82594109 46.149857 8
-3.3071356 0.83399773 46.317886 8.1739998
-3.0810025 0.86093825 46.322533 9.0415001
-2.7309361 0.82112515 46.327652 8.1745005
-2.1429815 0.84202147 46.341621 8.5865002
-1.8406013 0.86336863 46.291298 8.5822506
-1.4076077 0.83003271 46.240387 8.1066256
-0.98521125 0.87458497 46.29958 8.4675007
-0.63836831 0.83500141 46.296448 8.1136665
-0.19288105 0.84547544 46.274036 8.4230833
0.28229982 0.88004696 46.229744 8.8395996
0.55126083 0.82124352 46.280209 8.793375
0.97937703 0.95617652 46.362453 9.0112495
1.3782142 0.96368611 46.364513 9
1.828693 0.87771881 46.310425 8.75
2.1850784 0.8592729 46.322224 8.2857141
2.5605826 0.90098107 46.310635 8.25
3.0205328 0.90486711 46.253223 8.7780628
3.4097018 0.94201058 46.214844 9.0095005
3.723644 0.93087482 46.232315 9
4.1300054 0.93186778 46.360046 9.0014582
4.6084595 0.93508959 46.354084 9
4.9979401 0.93275082 46.346527 9
5.4244919 0.91643703 46.342506 9.0035381
5.7888179 0.90676463 46.343639 9
6.1742053 0.92391765 46.334732 9
6.6371713 0.93308783 46.376926 9
6.9832711 0.9304266 46.357239 9
7.4162474 0.94779241 46.343079 9
7.831552 0.93632144 46.336113 9
8.1296635 0.91850102 46.389763 9
8.5763178 0.91886407 46.348629 9
9.0952024 0.88196635 46.38549 9
9.414546 0.8210153 46.375435 9
9.8079739 0.9199152 46.329102 9
11.042237 0.8811484 46.333473 8.5248747
11.369797 0.91452748 46.260231 9
16.719559 0.85766095 46.130775 9
-16.697615 1.4603755 46.081535 9.0310001
-6.4900236 1.4049132 46.03624 9
-6.3435144 1.4545326 46.308514 9.0152502
-4.0503182 1.5750712 46.154552 9
-3.8592553 1.5469173 46.121193 9
-1.3536215 1.4987375 46.283051 9.007
-0.98831463 1.431464 46.366398 9.0144997
-0.71483016 1.4464365 46.346245 11.0535
-0.31379282 1.4737605 46.305271 10.367417
0.08570677 1.4514141 46.322571 10.540062
0.47278309 1.5520153 46.249847 9
0.82054758 1.5559521 46.255802 9
1.2505357 1.559662 46.238834 9
1.8943912 1.5728296 46.289379 9
2.091929 1.5682149 46.189888 9
2.7757311 1.443037 46.089993 11.0315
3.0275524 1.510307 46.257832 9.6791677
3.4652674 1.486692 46.15485 10.058063
3.8166158 1.4695826 46.354267 9.7640839
4.1876225 1.4682795 46.333229 9.8681078
4.6235509 1.4738004 46.327412 9.2892141
5.0094924 1.5011352 46.35202 9.3539581
5.408174 1.489653 46.34882 9.5781422
5.8187027 1.506287 46.359257 10.006125
6.2358499 1.4822588 46.36562 10.357417
6.6086898 1.5083106 46.373524 10.018375
6.9183364 1.485258 46.382511 9.6789999
7.3723631 1.5261008 46.369373 10.037687
8.182024 1.4897363 46.368866 11.074437
8.5956059 1.5120237 46.366844 11.075375
9.0170937 1.521883 46.378082 11.075417
9.5074081 1.5201986 46.387234 11.07475
9.9810476 1.549201 46.382839 11.07575
10.352769 1.5734532 46.383347 11.0765
10.642541 1.4725809 46.293022 10.0815
10.957826 1.4235747 46.188248 9.5689096
11.364851 1.380644 46.159714 11.04805
14.214066 1.4368927 46.39727 11
14.567268 1.4491924 46.398411 11
14.991179 1.50876 46.398026 11
15.361412 1.5358276 46.392654 11
15.701055 1.5351298 46.391205 11
16.231474 1.5941199 46.385853 11
16.699738 1.2886901 46.204933 9
16.865942 1.3778303 46.380005 9.0819998
19.366117 1.4060243 46.018471 9.0290003
22.739887 1.5033978 46.298794 9
22.893435 1.5099696 46.298004 9
23.398384 1.4655042 46.254578 9.0146666
-4.9877586 1.7039522 46.298077 11.044
-4.7306008 1.6858325 46.316418 11.0445
-4.1148658 1.6755773 46.137119 9
-3.0147219 1.6894096 46.318954 10.0215
-2.2316074 1.6820002 46.301064 11.069
-1.3770328 1.6661646 46.301971 11.071
-0.95706081 1.6618837 46.311031 11.072
-0.59777433 1.6913644 46.321121 11.008166
0.0017208755 1.6575942 46.324135 11
0.54693222 1.658308 46.319309 11
1.0251102 1.661777 46.315155 11.025666
1.3293881 1.6655744 46.313141 11.0775
1.874351 1.6742239 46.311554 11.078751
2.2852619 1.6836885 46.318489 11.07975
2.7635946 1.7181678 46.15451 11.0175
3.0228531 1.6748815 46.369072 10.011
3.4947231 1.6900034 46.278706 11.018167
3.8544495 1.7354274 46.372875 9.6730833
4.2930808 1.6763159 46.375896 11.018
4.6484089 1.650277 46.38118 11.01875
4.9949188 1.6255367 46.384403 11.0195
5.8831863 1.7191585 46.3573 11.032833
6.2363887 1.6951666 46.365982 11
6.5649538 1.6613611 46.363514 10.594071
7.0311995 1.7996404 46.396393 11.04675
7.3532667 1.6507103 46.354263 11.040501
7.7033582 1.6809065 46.320427 11.0815
8.5847883 1.7374886 46.314358 11.08325
9.1301012 1.7766603 46.32563 11.084249
9.4519978 1.611066 46.359852 11.07975
9.8475132 1.6381732 46.364426 11.0805
10.243721 1.6645093 46.347652 11.08125
10.969251 1.672835 46.233257 11.081084
11.354744 1.8170635 46.312519 11.017
16.669693 1.6129011 46.386192 11
18.351263 1.6970584 46.378605 11.047
19.290703 1.7387979 46.190117 11.052375
23.407326 1.666806 46.32531 9
-16.042791 2.0128515 46.074787 9.0264997
-4.4169207 2.3741076 46.284401 12.045
-3.3168559 2.3006043 46.295303 12.054
-2.5569758 2.2485771 46.314903 12.05575
3.5176406 2.3970273 46.023209 12.016
5.868917 2.2516742 46.34219 12.0775
6.1906037 2.2734151 46.337772 12.07825
10.088645 2.3915443 46.371189 12.081
15.703139 2.2192073 46.364128 12
16.24037 2.251492 46.361351 12
16.638157 2.2761533 46.34864 12
18.501087 2.3985198 46.315273 11.0915
-5.0755529 2.7867513 46.241646 12.0275
-4.6587725 2.6147506 46.282967 12.033
-1.9476902 2.5376532 46.203243 9.0895004
0.15125084 2.6925373 46.342083 12.016
2.2289252 2.7593067 46.389435 15.0485
2.4893098 2.737102 46.370392 15.04925
2.8267398 2.7163203 46.366814 14.55025
3.5281639 2.4426558 46.352787 12.0165
5.4232764 2.6751425 46.383266 14.05825
9.2241907 2.7840867 46.399994 15.0635
-10.873133 3.1134126 46.198212 12.0585
-10.710268 2.9758697 46.256214 9
-10.32688 2.9678383 46.278202 9
-9.3674793 2.94415 46.268837 9
-5.8758316 2.9065149 46.253754 12.0265
-5.4510174 2.8411233 46.234734 12.027
-1.9219265 2.8018768 46.307816 12.018
1.5615711 2.8452103 46.32547 15.0405
-5.2045927 -4.1250067 46.50069 4
-4.922276 -4.1295724 46.496376 4
-4.4249001 -4.1204143 46.52858 4
-1.3167809 -4.1105323 46.593002 4
-0.94781059 -4.1087761 46.616825 4
1.5832977 -4.3783674 46.604088 4
-5.8071675 -3.6335552 46.558697 4
-4.5551467 -3.7834787 46.589066 4
-1.0094368 -3.917217 46.689041 4
1.9552411 -3.988869 46.41526 4
2.106195 -3.9892478 46.417652 4
-5.6997128 -3.4091403 46.560024 4
-5.0548949 -3.4041588 46.567734 4
-0.98849893 -3.5279288 46.539539 4.5
-0.53580868 -2.869518 46.568939 3
4.2343159 -3.0472383 46.40387 2
7.7777176 -2.840642 46.516682 3
8.1916904 -2.866111 46.519073 3
-5.295126 -2.5919712 46.408363 3
-5.1298113 -2.7038965 46.565502 4
-4.6028433 -2.5797379 46.444775 3
-4.2543774 -2.570827 46.434143 3
-3.8978243 -2.5234575 46.519981 3.5
-0.73066086 -2.461247 46.404194 5
7.6740785 -2.7056482 46.445152 3
8.0655594 -2.7278929 46.433983 3
8.4800692 -2.7564287 46.454109 3
8.8980818 -2.78492 46.465286 3
-7.8732986 -2.3948104 46.44381 4
-7.4038763 -2.3843246 46.446472 4
-6.9341316 -2.3728368 46.430763 4
-6.4712849 -2.3632505 46.425766 4
-5.5646811 -2.3507586 46.458862 4
-5.1129847 -2.3444669 46.463188 4
-4.6648054 -2.3395991 46.474182 4
-4.219511 -2.3361561 46.491997 4
-3.7044587 -2.136374 46.472153 4
-1.2812605 -2.275147 46.720837 5
-1.1443976 -2.3837383 46.683044 5
4.6918325 -2.3298824 46.42255 3
5.5780897 -2.1376443 46.412704 3
6.1777086 -2.0091975 46.409492 4
7.0247622 -2.0371735 46.419529 4
7.3085456 -2.1575677 46.454239 4
7.9249544 -2.1396847 46.481262 4
8.554203 -2.2039456 46.476997 3
8.9129066 -2.2299724 46.470589 3
22.912102 -2.0784049 46.746788 3
-0.50956523 -1.908681 46.540764 4
5.5622377 -1.6695296 46.401001 4
7.7013226 -1.6067522 46.411362 2
8.0853605 -1.6190822 46.439468 3
8.6452589 -1.6614803 46.434399 2.6666667
8.9196625 -1.7000408 46.422203 2
9.2656231 -1.6057303 46.416264 2
10.747671 -1.6192303 46.541279 2
11.172834 -1.6208785 46.551315 2
11.380806 -1.622122 46.552689 2
12.446058 -1.6009185 46.438614 2
-3.7217307 -1.2819794 46.49419 5
-0.94416314 -1.3012078 46.437965 4
-0.64867204 -1.2262928 46.433102 4
-0.24701911 -1.2271992 46.437218 4
3.5690293 -1.5950506 46.414047 2
4.4833298 -1.4576162 46.407089 4
4.8206673 -1.4429429 46.414619 4
5.4233055 -1.4082133 46.413528 3
5.7433901 -1.4521096 46.412758 2.5
6.2194319 -1.4341896 46.412483 2.2
6.6679153 -1.4430785 46.417286 2.1666667
7.0521817 -1.4443249 46.417088 2.5
7.4091878 -1.4341365 46.422131 2.75
7.8723173 -1.4236537 46.426643 2.75
8.2665472 -1.4372392 46.442253 2.75
8.588356 -1.4204346 46.452175 3.0999999
8.9891205 -1.4422649 46.457458 3.1111112
9.907465 -1.4394159 46.504471 3
10.1379 -1.4131559 46.516426 2.6500001
10.548295 -1.2897239 46.518372 3
11.012148 -1.2660986 46.525646 3
12.230551 -1.5855256 46.441551 2
13.355489 -1.3963083 46.628098 3.3333333
13.737337 -1.3909099 46.631973 3.25
14.005906 -1.3208579 46.633759 3
16.319756 -1.2570939 46.744392 4
16.483078 -1.4783849 46.718193 4
22.91573 -1.3315759 46.565899 4
38.75238 -1.4296162 46.611401 5
38.902721 -1.3462121 46.54121 6
-7.0166864 -0.99074489 46.401314 6
-6.6836286 -0.86283815 46.413849 6
-2.4204388 -0.8220098 46.477615 4.5
-1.9895377 -0.96560943 46.551804 4
-1.3264103 -1.1664864 46.420105 4
-0.56243956 -1.1851983 46.408791 4
-0.29223815 -1.0205823 46.424995 4.5
1.5404906 -1.1353734 46.414104 3
1.7515093 -1.0391477 46.430099 4
2.0175867 -1.0230452 46.507484 4
5.4679022 -1.0632074 46.417862 3
5.8023839 -1.1025662 46.409702 3
6.1823893 -1.1113433 46.411369 3
6.6590562 -1.0887816 46.413269 3
7.0108981 -1.0831927 46.425465 4
7.4460349 -1.063302 46.437611 4.1666665
7.7955465 -1.0278628 46.440437 4.3846154
8.2261257 -1.1048642 46.430241 3.5714285
8.6192627 -1.0152261 46.453537 4.4000001
8.9888449 -1.017409 46.437031 4.2222223
9.3073797 -0.96308547 46.414581 3.8333333
9.7835598 -0.94479537 46.522881 4.25
10.188708 -1.0092413 46.540699 3.875
10.688917 -1.0078034 46.541809 3.5833333
11.167914 -1.1437883 46.490543 3
11.749116 -0.92599434 46.636589 4
12.171959 -1.1646527 46.450436 3
12.527705 -0.99088228 46.444508 3.5
13.187107 -0.99967408 46.643066 4
13.385551 -0.98903561 46.648643 4
13.748726 -0.93276078 46.660034 4
14.008609 -1.173858 46.662487 3.5
16.398008 -0.97771239 46.623837 5
16.514982 -1.0788823 46.752178 4
17.037123 -1.0039737 46.754124 4
-7.6839509 -0.66080856 46.402863 5
-7.0812802 -0.59405929 46.403442 6.3333335
-6.6096835 -0.5266118 46.406502 6.7142859
-6.2621737 -0.53834653 46.414528 6.818182
-5.8454566 -0.53658849 46.429279 7
-5.4565902 -0.55411536 46.438519 7
-5.0578747 -0.56410789 46.446045 7
-4.6346326 -0.55861348 46.466793 7
-4.209075 -0.56520218 46.476852 7
-3.7919393 -0.55330521 46.501522 7
-3.4992285 -0.5465796 46.508099 6.9583335
-2.9478226 -0.46570235 46.422745 5.125
-2.6544971 -0.49189886 46.427658 5
-2.1361175 -0.57471603 46.429962 5
-1.769446 -0.52483088 46.417992 5
-1.3683048 -0.63397819 46.534904 6.7777777
-1.0584944 -0.63998049 46.524712 6.8000002
-0.47835144 -0.42101166 46.586857 7
-0.28834841 -0.46764946 46.562847 7
1.4681454 -0.57768732 46.528194 4.75
1.7575823 -0.58717567 46.548351 5.9166665
2.0866683 -0.71112841 46.423355 4.5555553
2.6587975 -0.61415368 46.40617 4.3333335
2.8488245 -0.74846047 46.405388 4
3.7068157 -0.40441513 46.403107 5
4.3150449 -0.66522002 46.451176 4
5.4780865 -0.68455756 46.40995 4.5
5.8671541 -0.69790423 46.408791 4.4000001
6.2279768 -0.67354965 46.413731 4.1999998
6.5806751 -0.65042216 46.413097 4.6363635
7.0151944 -0.60067415 46.417503 5.2777777
7.443481 -0.59962809 46.425186 5.4545455
7.8408418 -0.6136418 46.440559 5.4000001
8.2268105 -0.58825696 46.437077 5.1875
8.6011219 -0.59635454 46.450966 5.2857141
9.0298719 -0.58397239 46.456009 5.3200002
9.4473343 -0.51035964 46.460846 5.3333335
9.8215876 -0.57764417 46.51289 4.6666665
10.182253 -0.63889396 46.525555 4.5714288
10.623703 -0.63671923 46.553642 4.4000001
11.017834 -0.69587356 46.538113 4.3000002
11.398969 -0.73581481 46.533337 4
11.864408 -0.7029376 46.518581 5.7142859
12.158393 -0.55674756 46.496483 5.7142859
12.634009 -0.49182725 46.501019 5.7142859
13.044521 -0.57232678 46.573036 4.875
13.404443 -0.53789687 46.581604 4.818182
13.744283 -0.56137663 46.660801 4.8571429
14.095154 -0.53731585 46.665962 5
14.537516 -0.42249385 46.419914 5.5
15.033305 -0.42237782 46.423603 5
15.390117 -0.4695324 46.432667 5
15.979179 -0.62331367 46.725517 5
16.235552 -0.56447399 46.634495 5
16.536844 -0.57615221 46.735989 5
16.978525 -0.53088164 46.763023 5
17.209642 -0.49540046 46.752541 5
22.994261 -0.50701374 46.538441 6.3333335
38.738808 -0.60238206 46.558678 6.5
38.864494 -0.77099144 46.743507 7
-5.7734737 -0.383039 46.41153 7
-5.4297094 -0.33209825 46.41143 6.5
-4.9905868 -0.29349345 46.411621 6.5999999
-4.5870028 -0.29628131 46.421707 6.75
-4.1728697 -0.27191252 46.418518 6.875
-3.766557 -0.27067515 46.430931 6.875
-3.4284756 -0.26358771 46.429951 6.6923075
-2.9832013 -0.14955792 46.420471 6.6999998
-2.600482 -0.12001225 46.43206 6.9166665
-2.1726413 -0.16444468 46.434143 6.6875
-1.7787472 -0.1502791 46.446312 6.8000002
-1.4499207 -0.12463339 46.441219 6.9523807
-1.0033413 -0.048640046 46.427162 6.9523811
-0.5737021 -0.15503018 46.46796 7
-0.22448632 -0.088027425 46.460438 6.8571429
0.20779569 -0.060376812 46.424824 6.9000001
0.58681655 -0.029323965 46.415485 7
1.0139761 -0.029529445 46.414703 7
1.4763316 -0.065925114 46.426086 6.4857144
1.8361005 -0.1702749 46.40715 5.8611112
2.0911644 -0.19119835 46.409412 5.75
2.4323568 -0.18983468 46.406837 5.75
2.9447711 -0.23302327 46.413044 5.5333333
3.3473797 -0.037678272 46.408882 6.3333335
3.6467035 -0.05391708 46.40284 6.6666665
4.1202254 -0.014083236 46.4123 6.6666665
4.5857372 -0.014944747 46.401257 7
5.066361 -0.22250266 46.404034 5.6666665
5.4435043 -0.18962899 46.405704 5.7083335
5.8225842 -0.2407939 46.410561 5.5999999
6.2387514 -0.27092305 46.414906 5.4200001
6.6077714 -0.23670194 46.415657 6.0845237
7.0168409 -0.21913114 46.418354 6.0285716
7.4338565 -0.21275441 46.426167 6.1214285
7.8121066 -0.18129331 46.432835 6.2199998
8.2584448 -0.20118681 46.443176 6.2825761
8.6365519 -0.18338704 46.449314 6.2993054
9.0331059 -0.18564476 46.468956 6.5576925
9.3857193 -0.16461147 46.473827 6.4058824
9.7935562 -0.14468437 46.494221 6.2460318
10.21825 -0.14017519 46.511986 6.1846156
10.638708 -0.11851404 46.504227 6.2210526
11.049407 -0.14273599 46.493919 6.1074829
11.377839 -0.14303944 46.516861 6.083333
11.819942 -0.14827338 46.528328 6.0598998
12.204561 -0.12079052 46.538433 6.3947368
12.58821 -0.16852635 46.530396 6.3159728
12.996528 -0.14620788 46.578953 6.3402772
13.375724 -0.16277388 46.577091 6.4333329
13.769243 -0.20222664 46.586662 6.0743589
14.183505 -0.19744398 46.571365 6.2175927
14.581554 -0.18813902 46.583424 6.1399999
15.007008 -0.1709747 46.596283 6.3421054
15.373125 -0.17700168 46.622017 6.355
15.797967 -0.15576933 46.582233 6.412281
16.200317 -0.17126481 46.587082 6.2826924
16.567217 -0.21740834 46.642483 6.2037034
16.998281 -0.16395223 46.630955 6.3690481
17.413073 -0.23379646 46.585926 6.2818179
17.802725 -0.2143732 46.588799 6.4000001
18.159996 -0.18206829 46.546173 6.75
18.603298 -0.22194988 46.430443 7
19.177944 -0.24488388 46.783287 6
19.502975 -0.24203619 46.799313 6
19.739223 -0.21745506 46.786667 6
20.128149 -0.22607078 46.79372 6
20.471512 -0.23366475 46.798943 6
22.956726 -0.30317771 46.461388 6.5
38.689816 -0.28205055 46.707054 7
-4.5664597 0.37762231 46.408489 8
-4.1867437 0.37648061 46.422543 8
-3.7902441 0.37538677 46.434677 8
-3.2134967 0.35792273 46.433743 8
-3.0489247 0.36431751 46.422497 8
-2.5262814 0.36953172 46.423412 8
-2.3072791 0.34738207 46.428753 8
-1.8481092 0.34245837 46.430473 8
-1.3182093 0.3567335 46.427124 8
-0.95775235 0.27724668 46.416794 7.75
-0.53643775 0.34187746 46.42944 8
-0.17716274 0.27599087 46.430084 7.8000002
0.14502805 0.34554636 46.415615 8
0.61281466 0.32104391 46.426346 8
1.1137364 0.3178148 46.424274 8
1.4465108 0.33639988 46.418491 8
1.7723897 0.38029271 46.415703 8
2.0981379 0.37676084 46.419693 8
2.432045 0.38772607 46.413338 8
2.8338358 0.38385364 46.408649 8
3.425499 0.34937328 46.4048 8
3.8075702 0.22682834 46.410549 7.5833335
4.1387682 0.33537725 46.404774 7.8333335
4.5699 0.23641197 46.412281 7.6666665
5.0170693 0.2341239 46.411739 7.6666665
5.4532213 0.3168014 46.409615 7.8571429
5.8321509 0.3544611 46.413006 8
6.206707 0.2154122 46.41188 7.4444442
6.6131282 0.25820661 46.41758 7.6666665
7.0438375 0.20866644 46.422501 7.3333335
7.3859582 0.24854694 46.42897 7.5
7.8108411 0.24303144 46.439327 7.479167
8.2080975 0.25153002 46.453465 7.4999995
8.6116371 0.29464775 46.452732 7.818182
9.0282249 0.2762087 46.46154 7.6785712
9.4290504 0.25188014 46.485332 7.53125
9.827219 0.19126812 46.477062 7.4058399
10.223362 0.22722717 46.485344 7.449553
10.611607 0.25639564 46.498589 7.5107994
11.03992 0.27475768 46.489746 7.6715302
11.4174 0.24628921 46.506542 7.5141754
11.808945 0.25357965 46.539581 7.4236565
12.177559 0.22570084 46.53027 7.449357
12.586866 0.22954547 46.547264 7.4935479
13.054454 0.23124623 46.563931 7.4643893
13.408088 0.24221478 46.571281 7.4189687
13.780132 0.23055251 46.566101 7.5228438
14.204196 0.24016152 46.570515 7.5230622
14.60751 0.1915185 46.614132 7.3980155
14.959625 0.25842753 46.592247 7.5035229
15.380112 0.22271079 46.625309 7.3555417
15.763448 0.22979514 46.61623 7.4932652
16.206236 0.23218204 46.59219 7.431602
16.601908 0.20634393 46.648453 7.4005318
16.993219 0.20251536 46.652519 7.3064389
17.383511 0.27867097 46.61903 7.6426744
17.867212 0.26310068 46.546413 7.6087146
18.199554 0.30175442 46.606838 7.8542504
18.558947 0.34684736 46.490532 7.9147859
18.97666 0.33675137 46.490955 7.8511496
19.372055 0.35972223 46.548126 7.8516006
19.780533 0.35729724 46.491848 8.0632992
20.187124 0.34233645 46.539509 7.762857
20.644148 0.35307425 46.500954 7.9152145
21.056517 0.34463421 46.536213 7.7118325
21.359987 0.36580661 46.49263 8.066
21.695324 0.3530618 46.506321 7.8566999
22.173527 0.37572616 46.5037 8.0702
22.527628 0.37356034 46.48418 8.0658331
22.994219 0.31519464 46.501827 7.6693749
23.388367 0.37817818 46.47765 7.9134002
-7.5328274 0.77005565 46.408699 8
-6.9369392 0.69024611 46.407398 8
-6.6042829 0.68397415 46.412258 8
-6.238225 0.62439388 46.418373 8
-5.7841687 0.62620068 46.434982 8
-5.4316483 0.58784336 46.438953 8
-5.0118179 0.58772439 46.443577 8
-4.6129966 0.57292712 46.428631 8
-4.2118888 0.49355873 46.416821 8
-3.7326634 0.48622572 46.41148 8
-3.3503342 0.45263371 46.410034 8
-3.0880072 0.63230747 46.454849 8.0880003
-1.0416515 0.41326648 46.407455 8
-0.55317986 0.41429183 46.412971 8
-0.14369464 0.42415851 46.41592 8
3.4596906 0.44886231 46.402367 8.0192509
3.9178081 0.49482736 46.401466 8.0146255
4.2412996 0.48900482 46.4039 8.0152493
4.9553232 0.66880262 46.412979 7.5469999
5.4903927 0.79855782 46.41008 8.0944996
5.88133 0.62893587 46.407902 8.1594448
6.2164249 0.56454968 46.409809 7.9808011
6.6100683 0.56650472 46.420132 8.0082979
7.0529823 0.56129354 46.424484 8.0673399
7.4415259 0.54249924 46.432232 8.0116606
7.8369346 0.57365572 46.449047 7.9896841
8.2171087 0.53374577 46.458244 8.0804462
8.6111641 0.52449441 46.467335 8.0357199
9.0485144 0.5137226 46.491604 7.9721904
9.4163198 0.55002433 46.501831 8.0346308
9.8233767 0.56996328 46.518711 8.0092421
10.254114 0.57337737 46.538372 8.0623026
10.639034 0.56486839 46.541084 8.0770407
11.00058 0.55466247 46.544117 7.9905505
11.440788 0.5577274 46.571007 8.0577621
11.791932 0.56319195 46.586029 8.1051731
12.163176 0.54633194 46.591362 8.0583649
12.588248 0.55488163 46.597637 8.0905924
13.000555 0.57586014 46.599815 8.2095995
13.389664 0.54756093 46.629993 7.9273543
13.80408 0.54522085 46.648952 8.0492048
14.179761 0.56082577 46.651043 7.8979816
14.631351 0.54996961 46.672684 7.9784708
14.939938 0.5687238 46.686596 8.0669708
15.38423 0.55575538 46.667019 7.9966192
15.760074 0.56908083 46.696728 8.0551577
16.204239 0.56489211 46.6646 7.9194994
16.621323 0.57371563 46.693565 8.0463676
17.007038 0.54717577 46.71542 7.8165121
17.394928 0.55874139 46.731583 7.9342694
17.804226 0.5645448 46.728027 8.0177383
18.230829 0.5518381 46.68396 7.9307995
18.603271 0.54565066 46.725731 7.9574323
18.962822 0.56399697 46.738327 7.6597128
19.390659 0.53028822 46.724968 7.9761248
19.778276 0.48558441 46.629101 7.8931251
20.267078 0.47364628 46.630562 7.6592493
20.566952 0.5258643 46.577175 8.0648336
20.94923 0.4574272 46.549316 7.7818127
21.408642 0.4577148 46.468998 8.0514498
21.837824 0.45269778 46.46014 8.0460825
22.214521 0.45000899 46.470032 8.0587502
22.522408 0.47668868 46.465576 8.0437498
22.952112 0.57326168 46.566715 7.8909783
23.331011 0.42395604 46.478516 8.0181665
28.390419 0.74822575 46.765022 8.0229998
28.929007 0.73019439 46.757065 8.0249996
29.452732 0.73512381 46.767281 8.0255003
29.953474 0.76236862 46.78788 8.0244999
30.048208 0.68686819 46.693535 8.0295
30.565775 0.7169463 46.736847 8.0283327
31.121086 0.65850949 46.644123 8.0328331
31.745783 0.63618803 46.603287 8.0360003
32.326996 0.66456699 46.6437 8.0340004
32.450943 0.61581445 46.563232 8.0389996
33.033535 0.67236614 46.664459 8.0343332
33.210228 0.56217742 46.466625 8.0450001
33.831123 0.57936621 46.491364 8.0424995
34.11961 0.57336724 46.462467 8.0515003
34.60611 0.58272135 46.489246 8.0429993
35.000767 0.57871133 46.459221 8.052
35.228661 0.60031748 46.524559 8.0404997
36.95697 0.65002668 46.596626 8.0447502
37.545029 0.52421159 46.471024 8.059
37.824203 0.71609646 46.731625 8.0369997
38.048458 0.59829003 46.460949 8.0535002
38.752731 0.65139586 46.6339 8.0323334
38.856937 0.56462765 46.508617 7.7024994
-5.5227489 0.83869898 46.413315 8
-4.7621584 0.91646671 46.457088 8
0.15663493 0.98994291 46.421413 9
0.58497834 0.97978574 46.405838 9
2.4871809 0.94700295 46.402985 9
2.9908884 0.94114637 46.401245 9
3.7976632 0.95990866 46.408546 9
4.9921451 0.86036646 46.408058 8.5467501
6.1671963 0.93742955 46.408203 9
6.6598592 0.92843115 46.415596 9
6.8871078 0.82466686 46.432945 8.5475006
7.438437 0.86703318 46.44529 8.6381006
7.8174877 0.92194694 46.427029 8.8995552
8.2636013 0.8805936 46.442421 8.7739372
8.5936146 0.90478688 46.453869 8.7741251
9.1019325 0.89864558 46.455975 8.8710003
9.4763422 0.87269157 46.460361 8.8494997
9.8256273 0.8998608 46.479748 8.762188
10.255648 0.89195329 46.457237 9
10.682149 0.87094003 46.4716 8.8196001
