# .PCD v0.7 - Point Cloud Data file format
VERSION 0.7
FIELDS x y z intensity
SIZE 4 4 4 4
TYPE F F F F
COUNT 1 1 1 1
WIDTH 1250
HEIGHT 1
VIEWPOINT 0 0 0 1 0 0 0
POINTS 1250
DATA ascii
-5.2642579 0.92566603 -4.5141869 11.0215
-5.0855598 0.91134113 -4.5155058 11.021
-3.9433823 0.8294965 -4.6824946 10.014376
-3.222898 0.9179126 -4.4962234 11.013
-3.0811374 0.91045856 -4.496274 11.0125
-2.4966755 0.95263749 -4.492888 12.014
-2.2429085 0.93178982 -4.4917026 12.012751
-0.81920642 1.0123036 -4.4532881 12.004
-0.23779751 0.96368134 -4.5330915 11.001
1.5802205 0.86361009 -4.5649123 9
1.8127577 0.86649436 -4.5533643 9
2.2341502 0.9660902 -4.5386467 11.375813
2.5246439 0.88325113 -4.5200911 10.08475
-16.865988 1.4247717 -4.6466069 9.0369997
-3.1523633 1.547426 -4.764658 14.016251
-0.83592772 1.2447047 -4.4714527 14.005
3.5452697 1.2243057 -4.588438 12.164
11.984459 1.5926529 -4.6948566 11.146
-3.0788701 -2.9097731 -4.3748093 4
-3.2406902 -2.5408323 -4.135828 4
-3.3057017 -2.2571473 -4.070632 3
-3.0369375 -2.0595527 -4.0158401 2
-2.6230569 -2.0314789 -4.0706387 1
-2.1487207 -2.0467474 -4.2087665 1.3333334
-1.7871983 -2.0120649 -4.3168292 0
-1.4496236 -2.0383358 -4.3409843 1
-0.70018685 -2.1126714 -4.277565 5
2.931371 -2.0074351 -4.3886223 3
13.431974 -2.0942073 -4.1677647 5
14.886688 -2.1052835 -4.3567352 5
19.305786 -2.1190186 -4.3422737 5
-3.2867417 -1.7617657 -4.0686531 5.5
-3.0839164 -1.6998105 -4.2581019 4.9166665
1.1882572 -1.993382 -4.3544121 0
1.4075695 -1.994395 -4.3194137 0
1.8163142 -1.9884319 -4.2072372 0
2.0712044 -1.9835211 -4.1213245 0
2.7925491 -1.746635 -4.0012264 5
-3.6827369 -1.4225349 -4.0301857 4.5
-3.3458085 -1.3461581 -4.1526227 4.5
-3.1025751 -1.4727457 -4.2537832 4.3333335
2.746484 -1.4465857 -4.27457 3
2.8333538 -1.3163708 -4.2239418 3.5999999
-5.2804785 -1.0160965 -4.0386038 3
-4.9508448 -1.0624148 -4.0343447 3
-4.6099119 -1.091386 -4.0979128 4
-4.2283201 -1.0361676 -4.1626821 3.75
-3.7711871 -1.0877086 -4.1729255 3
-3.4701056 -1.133516 -4.2628717 3.75
3.0479612 -1.1343267 -4.2502241 3
3.4035144 -1.0575976 -4.155829 3.75
3.8101909 -1.0070957 -4.1901708 4.6666665
4.103116 -0.90066069 -4.2349095 3.5
5.3073173 -0.88404858 -4.1457195 3.5
6.2916069 -0.9179396 -4.2214756 4
-6.5863709 -0.7354098 -4.235765 4
-5.6577482 -0.72110522 -4.2549953 4
-5.3795342 -0.68499625 -4.2617121 4.1999998
-4.976624 -0.72610074 -4.2231894 4.3333335
4.6657767 -0.58390224 -4.1100254 4.416667
5.0605412 -0.49420547 -4.3231058 5
5.4475174 -0.49356291 -4.2102442 4.875
5.8471403 -0.45483893 -4.3096027 5
8.5797977 -0.61169147 -4.1836529 5
8.7483368 -0.3390004 -4.1800604 6
-6.5521317 0.70703399 -4.1816053 9.02425
-3.9331236 0.78842735 -4.3077784 9.0120001
7.3342762 0.72126943 -4.1936588 9.1516247
-13.663149 1.1655443 -4.2526007 9.0360003
-12.085796 1.0395904 -4.0939322 9.0352497
-8.2397709 1.177563 -4.1914668 11.028625
-3.9904871 0.80406141 -4.2499275 11.01825
-0.77703422 0.94538057 -4.370894 11.003
2.2954094 0.95470417 -4.0002451 11.1715
2.5351176 0.92343688 -4.2586975 12.164875
3.5068209 1.0314987 -4.2595797 11.912563
3.8309448 0.94009548 -4.3674622 11.165
4.1426773 0.95943987 -4.3628111 11.164
5.1285748 0.93096393 -4.3689747 11.1585
5.3861351 0.95176202 -4.3474483 11.15775
5.6743932 0.97745246 -4.3447666 11.157
6.2155857 0.94645143 -4.3754344 11.153
6.4196901 0.9654181 -4.3540802 11.1525
10.911552 0.9585951 -4.2637987 9.1459999
11.973854 1.5699633 -4.2099423 11.145
-3.0999615 2.4540591 -4.0914345 9.0030003
-85.086037 -11.916618 -3.9540825 3
18.891178 -2.4509795 -3.952713 5
-3.7161331 -2.059536 -3.8427067 2
-3.4330602 -2.062233 -3.9353509 2
-2.7037575 -2.0578172 -3.6623755 3.5
-2.1500607 -2.0235291 -3.7423754 3
-1.7379876 -2.048789 -3.781821 3.6666667
-1.3504119 -2.0257545 -3.8096972 3
-0.9489125 -2.0245209 -3.8097191 3
-0.54791141 -2.0239773 -3.8053427 3
2.5232329 -2.0380254 -3.7652078 2
2.91975 -2.2604878 -3.7355452 3
14.047257 -2.1044245 -3.7579155 5
-3.605926 -1.6314727 -3.983778 4
2.8482683 -1.652841 -3.9422455 4
-4.1706061 -1.2920367 -3.9518881 3
-3.7442896 -1.2773268 -3.9881954 4
-3.5763578 -1.3227496 -3.9908676 3.5
2.9882214 -1.3440801 -3.8223286 3.8333333
18.968845 -1.4879949 -3.8812103 6
-4.60919 -1.117346 -3.9661059 3.3333333
-4.1091027 -1.1544574 -3.9792328 3
-3.8342507 -1.137327 -3.9932518 3
3.1311491 -1.1661541 -3.8659077 4
3.3996899 -1.092081 -3.8217552 3.3333333
3.8176315 -0.99411559 -3.7230268 3
4.2267485 -0.91013837 -3.6356616 3.5
4.830862 -0.92259908 -3.6216357 3
5.3990259 -0.90442574 -3.6199193 3
4.6764264 -0.59086162 -3.9018247 4.5
4.9444981 -0.60784692 -3.8288364 4.3333335
5.4012113 -0.68045503 -3.7690141 4
5.7950892 -0.63466036 -3.8860159 4.5
6.0920658 -0.67937136 -3.8192601 4.25
6.4242759 -0.70393997 -3.7786164 4
8.8981905 -0.5609231 -3.6773839 5
10.28057 -0.63499033 -3.639853 5
10.830523 -0.66490781 -3.626029 5
8.9213276 -0.33950102 -3.8362403 6
9.4005079 -0.35316455 -3.7081349 6
9.8993578 -0.36939442 -3.7092481 6
10.433869 -0.3868463 -3.7060151 6
-6.5667639 0.64997786 -3.8935673 9.0262499
-3.9336734 0.75740206 -3.8893509 9.0124998
0.014933795 0.68470716 -3.6389704 9
7.3364925 0.70311779 -3.746212 9.1503754
-3.9583545 0.87146997 -3.6311514 11.01725
2.2504349 0.97975981 -3.7677319 12.1675
3.5421581 1.1323262 -3.9701297 12.1625
3.6757622 0.98435366 -3.8284559 12.158501
2.7469859 2.4452405 -3.8700924 9.177
-30.253584 -7.8788438 -3.500639 3
-3.4661906 -2.0166049 -3.5132446 3
-3.0196342 -2.0109787 -3.5672526 3.5
-2.5482216 -2.0854423 -3.2455845 5
-2.3857508 -2.0200982 -3.3750992 5
3.1021898 -2.1720953 -3.4606552 3.5
17.52791 -2.0625215 -3.268549 5
18.025454 -2.0634713 -3.262167 5
13.744951 -1.9105895 -3.4007778 5
17.910254 -1.9066522 -3.2909317 5
19.218916 -1.2518446 -3.3534565 6
3.3982143 -1.1979979 -3.5985918 3
3.7918308 -1.0749798 -3.5990081 3
4.3059855 -1.0108393 -3.5311282 2.75
4.5313506 -1.0265462 -3.5762329 2.5
19.356863 -1.1123009 -3.4322071 6
9.598403 -0.59665442 -3.5839348 5
-7.3107781 0.65744007 -3.3828292 9.0319996
-6.9350319 0.64419246 -3.4714646 9.0296249
-6.6864738 0.63124466 -3.5646162 9.0288754
7.2938848 0.72007191 -3.5941751 9.1514997
7.8869615 0.70872521 -3.5363851 9.1475
-7.4035697 1.0386311 -3.3338344 11.0295
-6.5783143 0.91463125 -3.3942227 11.03075
-6.3483462 0.93129247 -3.3233774 11.0275
-5.6894298 0.98541558 -3.3750684 11.023
-5.2667942 0.94475001 -3.3303416 11.022
-3.9673042 0.942348 -3.2346232 11.519625
-3.3960383 0.98926365 -3.2530835 12.01875
-2.3661458 1.0929357 -3.2464688 14.01725
-1.7328137 1.0077435 -3.2513549 14.01325
-1.5886574 0.99225432 -3.2562277 14.01225
-0.47748581 0.98885155 -3.2048557 12.0025
-0.19440442 0.98612076 -3.2042186 12.000999
2.554939 0.94059551 -3.3530905 12.165
3.31422 1.0358717 -3.473655 12.162
5.7853703 0.84478986 -3.5434623 11.15125
-2.5543728 -2.0543716 -3.0058718 2.3333333
-2.2009974 -2.0430064 -3.0414286 1
-1.730518 -2.0552158 -3.1032031 2.3333333
-1.4488688 -2.0409141 -3.1600761 1
2.9740617 -2.0018554 -3.1670141 3
14.562439 -2.04901 -3.0696812 5
-3.4944437 -1.753504 -2.8174934 3
1.182502 -1.9910845 -3.129746 0
1.4073621 -1.9890798 -3.0806251 0
1.8819779 -1.9820832 -2.9436753 0
2.0495424 -1.9742888 -2.8673615 0
18.421684 -1.9015634 -3.1769218 5
19.263414 -1.6428895 -3.0092773 5
-3.5370693 -1.4540761 -2.8049307 2
-4.5710077 -0.91260868 -3.078742 3
-4.0919809 -1.0242286 -2.9043083 2.5
19.422224 -1.1092621 -3.1219521 6
-5.2341833 -0.55864155 -2.8423817 4
-4.9906259 -0.70197779 -2.9885619 3.6666667
-4.7635207 -0.77136904 -2.9202986 3
-3.9818354 0.79742956 -2.8646257 11.01925
-1.8708121 0.54927814 -3.0200255 11.012
-0.038989559 0.74728149 -3.0149481 12
1.0055302 0.59920919 -3.0072834 12.171
-6.5898952 0.88826877 -2.8977935 11.0325
-5.0523801 1.167315 -3.0296457 12.025249
-4.6210451 1.1069902 -3.0130765 12.023999
-4.10849 0.99034202 -3.0350561 12.024125
-3.036176 1.1574539 -3.0121233 14.021749
-2.5216346 1.0710043 -3.0557189 13.015875
-2.0927684 1.1268333 -3.0712743 13.011999
-1.799643 1.1723779 -2.9540756 14.011749
-1.4050682 1.1336982 -3.0145967 14.004999
-1.025529 1.1044827 -3.0739944 14
-0.62842137 1.087903 -3.0808532 14
-0.18603702 1.0855051 -3.0395932 14.00025
1.0543429 1.1065792 -2.8970501 14.172501
1.381687 1.13265 -2.8928006 14.170376
1.7951481 1.0914769 -3.0419714 14.16675
2.1188247 1.1024827 -3.0820093 13.499665
2.648927 1.0305977 -3.0653541 12.830083
3.1668384 1.0922073 -2.8628871 12.164
3.4457543 0.99080825 -2.9990149 12.159833
4.1601877 0.96060741 -3.1373825 11.659
4.7626438 1.1440117 -2.8860853 12.155
4.9492559 1.1638896 -2.8238032 12.15425
5.4166007 1.1425095 -3.0309544 12.150126
5.7520018 0.93520761 -3.0297439 11.48275
7.2159195 0.97262836 -3.0657055 11.147
8.4075708 1.1090842 -3.0790479 11.1455
-8.0877275 1.5783612 -3.1065907 12.034
-7.7173018 1.5164945 -3.1138611 12.0335
-7.3401899 1.4528331 -3.1052246 12.033
-6.9880996 1.3936547 -3.0948818 12.0325
-4.9837327 1.5685687 -3.0592957 14.0285
-4.6988273 1.5040295 -3.0508611 14.02775
-4.268846 1.4085114 -3.036335 14.026501
-3.8304515 1.3160058 -3.0320597 14.024999
-3.436574 1.2351164 -3.0209856 14.023499
-2.5316827 1.2637572 -2.9689648 14.01575
-2.198818 1.2197111 -2.9642189 14.014
2.202009 1.2217195 -2.8791354 14.1655
2.6549432 1.2839451 -2.8675661 14.163126
2.88006 1.3165476 -2.8578811 14.162
3.4655864 1.2154679 -2.8208053 14.15525
5.3160267 1.2171144 -2.8175073 12.15325
5.7105002 1.2753476 -2.8054616 12.15225
6.0625086 1.2285568 -2.826617 12.148
6.6120667 1.3182099 -2.8127108 12.147
6.9208546 1.3693123 -2.8061464 12.1465
-5.4818478 1.664073 -2.9260263 14.030251
-5.1743956 1.6111637 -3.0565042 14.029
-2.5889847 -2.0134168 -2.4994907 4
-2.1017573 -2.0988312 -2.4005604 4
-1.9439942 -2.0220041 -2.4527178 3
-1.5417174 -2.0239463 -2.4840107 3
-1.138263 -2.0245719 -2.4960365 3
-0.73486269 -2.0252275 -2.4963112 3
13.343201 -2.03315 -2.4212723 5
14.913229 -2.0448854 -2.6507339 5
16.932175 -2.0502493 -2.7025967 5
17.340857 -2.0533748 -2.7165051 5
18.697727 -2.0952117 -2.6037369 5
16.756004 -1.9932373 -2.6974277 6
-3.6398838 -1.2378572 -2.5489163 2
-3.5774422 -1.4182762 -2.5685196 2
-4.5711598 -0.89194459 -2.7492507 3
-4.1832871 -0.98605013 -2.5035572 2.5
-3.8496644 -1.0976337 -2.6390994 2.6666667
3.0557904 -1.1009778 -2.4683747 2.5
3.3792861 -1.013293 -2.4061096 2
3.8132653 -0.95519024 -2.6108398 2.5
4.0753517 -0.88143599 -2.7165442 2.5
5.119339 -0.83262354 -2.6471839 3
6.049665 -0.90415335 -2.4078467 3
-5.2286477 -0.54138786 -2.4556475 4
-5.1538348 -0.59825319 -2.6684763 4
4.2033634 -0.75920957 -2.5818243 3
4.5805583 -0.61106014 -2.5493796 3.9166667
8.2416935 -0.50000703 -2.4182773 5
-1.8732865 0.59896767 -2.6084838 12.016875
-0.089760281 0.73717678 -2.5920062 12.5005
0.99762034 0.59632361 -2.4919217 11.174
-6.5908804 0.89350361 -2.6209831 11.031876
-4.0094948 0.86413717 -2.4831493 12.02825
-3.9995153 0.89420253 -2.7858567 12.026751
2.128695 0.89663488 -2.4689627 14.16025
2.5493538 0.9654237 -2.4339852 14.157499
3.5027952 1.1618662 -2.4517748 14.15325
-8.2876816 1.5839218 -2.6544361 12.035625
6.1498256 1.3421835 -2.7954533 12.15125
7.2495956 1.4240006 -2.7970572 12.146
7.6121874 1.4849651 -2.7897215 12.1455
8.0043697 1.5513085 -2.7807055 12.145
8.4356613 1.6248244 -2.7716951 12.1445
8.9241276 1.7041597 -2.6802239 12.14375
-3.2643173 -2.0070796 -2.207303 3
-2.7356906 -2.009517 -2.2937145 3
-2.3418341 -2.0164118 -2.3826866 3
18.933002 -2.0352631 -2.3801498 5
-2.92453 -1.9674628 -2.372673 5
17.019836 -1.9595163 -2.1950016 5
18.627321 -1.9759622 -2.391325 5
-3.6256413 -1.2182515 -2.3618379 3
2.6934299 -1.4277861 -2.264523 2
2.8129129 -1.2555327 -2.0490034 3
19.3493 -1.2476308 -2.1099396 6
-3.8383937 -1.0853221 -2.2998967 1
3.016891 -1.1086462 -2.1343627 3
3.3772786 -0.99690777 -2.1353898 2.5
4.0659351 -0.83239383 -2.2231984 2.5
5.1434326 -0.8369208 -2.2859294 3
6.0695877 -0.8976438 -2.2304392 3
-5.281127 -0.53116596 -2.0621481 4
-5.1899667 -0.57722849 -2.2417305 4
4.2318335 -0.70573819 -2.330801 3
4.6444888 -0.50502431 -2.1997924 4
8.411232 -0.30473635 -2.3177578 6
-1.8600445 0.58127069 -2.0998385 11.01175
0.97543079 0.62328404 -2.1507123 12.1715
1.7355775 0.76430726 -2.1488743 14.16125
2.172698 0.7294696 -2.2205772 11
2.531054 0.73616552 -2.1366122 10.777416
2.9273732 0.73933852 -2.0218546 10.167875
-6.5769181 0.85779452 -2.3567142 11
-4.0148797 0.82868451 -2.1028211 12.03025
2.0181024 0.82368386 -2.2054155 14.1595
2.5544109 0.95210409 -2.32809 12.16525
6.2913704 0.81893378 -2.0166385 11.1445
-8.3110466 1.5567424 -2.0690532 12.0375
-8.9005022 -3.8968563 -1.7169113 4
-2.2162921 -2.0028446 -1.6684117 0
-1.840549 -2.0011792 -1.7516613 0
-1.4556381 -1.9977238 -1.8107562 0
-1.0449016 -1.9956696 -1.8581533 0
1.1390253 -1.9827697 -1.7361708 0
1.3555053 -1.9813213 -1.6881924 0
1.6599264 -1.9773941 -1.6041265 0
2.7665169 -1.7552665 -1.7340393 4
13.376333 -1.9434373 -1.7929974 5
13.896694 -1.9322212 -1.6809902 5
19.092916 -1.9434595 -1.9026127 5
2.8505635 -1.3240647 -1.8692992 3.5
-6.4473014 -0.91829371 -1.679642 3
-5.753324 -0.95384371 -1.6569505 2.5
-3.8325117 -1.1064852 -1.8872395 0
3.0208018 -1.1287184 -1.7907234 2.3333333
3.3240225 -1.0175973 -1.8452721 1.25
4.2102227 -0.86910516 -1.7265581 2
19.289522 -1.1824152 -1.6446857 6
-6.5548391 -0.63798207 -1.8467197 4
-6.235404 -0.60985315 -1.8727896 4
-5.7940564 -0.56953681 -1.8482447 4
-5.4449821 -0.53812736 -1.8397589 4
4.6692829 -0.49262393 -1.8878481 4
5.2899947 -0.45162958 -1.625423 5
-1.8874623 0.63013291 -1.8475311 12.016
0.98196006 0.60564822 -1.9740261 13.169125
3.0361636 0.75491321 -1.7141128 11.660625
-6.5894465 0.84391117 -1.9664228 11
-4.0582228 0.84625918 -1.8896322 12.029918
-3.0991821 0.94758165 -1.6911306 14.0295
3.3656321 0.96624756 -1.7995399 13.485085
6.9606128 0.89357549 -1.9097524 11.14325
-6.4245768 1.2176286 -1.9497907 12
-2.9993715 -2.0333834 -1.2605228 2
-2.5012572 -2.0342538 -1.3535204 2
-2.2187395 -2.071156 -1.3819451 3
-1.7058883 -2.048327 -1.5254335 2
-1.5033575 -2.0494142 -1.5463076 2
-2.4434166 -1.9937924 -1.568706 0
1.886282 -1.970637 -1.51723 0
2.1554871 -1.9603282 -1.3936763 0
2.501986 -1.9593438 -1.2680659 0
2.9791067 -1.2760054 -1.5698771 3
19.294958 -1.299938 -1.4435253 6
-4.9383574 -0.93061614 -1.4624195 2
3.2299297 -1.0644338 -1.5384068 0
19.35125 -1.1790146 -1.3386765 6
4.112967 -0.79725289 -1.4814651 2
4.9142752 -0.48505953 -1.516238 4
5.7407207 1.0867686 -1.5094595 12.143
2.2963893 -2.0352454 -1.0828114 2
13.856436 -2.0164499 -1.0515938 5
14.382346 -2.0137908 -1.0080261 5
18.04891 -2.0206075 -0.85121155 5
14.905986 -1.9680943 -0.80986214 6
19.118969 -1.4049495 -1.0333195 5
19.305244 -1.4888853 -0.99526215 6
-2.8869777 -0.5550819 -0.8772831 7
-3.103569 -0.27040839 -0.81792068 6
-3.1785159 0.68636775 -1.0365901 12.02775
-2.5058093 0.71113443 -0.97772932 14
-2.375813 0.69973493 -1.1242132 14.0155
-1.6970822 0.67910403 -1.0071955 13.012
-1.5636175 0.6993078 -1.1843593 14
1.893937 0.73180336 -0.90339744 14
2.264782 0.71812558 -0.97405457 12.162125
2.4981332 0.72312129 -0.86512208 13.08025
-2.870194 -3.0681047 -0.42624283 4
-3.1329501 -2.0086422 -0.42951775 4
-2.2318892 -2.0106449 -0.50517464 4
-1.8697699 -2.024879 -0.51951504 4.5
-1.4290488 -2.0269604 -0.54788685 4.5
-1.0291975 -2.0173943 -0.59687805 4
-0.62696326 -2.0179422 -0.59519005 4
-3.0829568 -1.7729664 -0.61474991 3.2
-2.7258596 -1.9511362 -0.40668488 3
-2.3404675 -1.95356 -0.46656513 3
-1.9529974 -1.9553112 -0.51256657 3
-1.5428545 -1.9642048 -0.48435593 1.5
-1.1332684 -1.966821 -0.53217268 1.5
-0.74264479 -1.9674499 -0.55049753 1.5
16.854809 -1.9921051 -0.59659195 5
17.248871 -1.9902617 -0.55102539 5
18.039633 -1.9909478 -0.48879814 5
-3.126265 -1.3024142 -0.52618873 3.2
2.6745274 -1.3322266 -0.48887268 2.3333333
-3.0850673 -0.98175693 -0.53850299 3.9222221
2.6812267 -0.96057552 -0.47661841 3.0833333
5.0347705 -0.91975522 -0.40045929 5
5.3212867 -0.85878521 -0.48649502 5
-3.1189775 -0.54810977 -0.61599183 3.6923077
2.700295 -0.54986143 -0.52781659 3.55
5.3462925 -0.7764104 -0.40806675 5
-3.120312 -0.18969645 -0.59572768 6.2024689
2.6971781 -0.18261819 -0.56532794 6.1333337
-3.1271296 0.20204543 -0.62598979 8.4473972
2.6956236 0.2155129 -0.51939297 8.6629553
-3.0466902 0.55886739 -0.51649123 9.515667
-2.6227674 0.68505168 -0.45711488 8.208333
-2.2394402 0.50396293 -0.67729402 9
-1.7919767 0.62654924 -0.42372441 9.5
-1.540643 0.56303167 -0.49061239 12.261
-0.94942701 0.53197271 -0.56396365 9
1.785372 0.64326972 -0.42420876 14.155251
2.62672 0.6359337 -0.54335177 12.259212
-2.9836226 0.88359809 -0.44719505 8
-2.665575 0.88394022 -0.43060303 8
-2.3057547 0.87105769 -0.4132309 8
-1.812717 0.86168921 -0.41641617 8
-1.3880506 0.86241126 -0.40260315 8
-0.80899954 -4.6148729 -0.39820862 3
1.3789142 -4.6035066 -0.36175537 3
2.7364354 -4.5340953 -0.33559036 3
2.9409211 -4.1905527 -0.25604057 3
3.3561187 -4.2162027 -0.27688789 3
3.8731413 -4.1645932 -0.058216095 3
4.0367417 -4.1962061 -0.16057777 3
-3.2755625 -3.7085633 -0.28507805 2
-3.1807368 -3.9787412 -0.36105156 3
2.8678689 -3.9873452 -0.24333382 3
3.3801703 -3.9736452 -0.07034874 3
-3.2159765 -3.37867 -0.21122551 2
-3.1816454 -3.2310755 -0.3608551 4
2.9033375 -3.2027104 -0.22994423 4
7.3447957 -3.2128594 -0.16885376 4
-3.237355 -3.055305 -0.11243439 2
2.8453453 -2.9910419 -0.19988489 2
-3.2234983 -2.6008785 -0.20459175 2.75
-3.0933089 -2.5818467 -0.26872683 4
2.832227 -2.6485536 -0.26183572 4
7.4403558 -2.5187578 -0.14860153 5
-3.2248085 -2.2630842 -0.15169029 3.8
-3.1399176 -2.2129807 -0.18036604 3
-2.5789232 -2.0153861 -0.20269871 3
-2.2386825 -2.0391204 -0.1141243 2
-1.7315 -2.0413857 -0.18578529 2
2.6955891 -2.178328 -0.24151452 3.3333333
2.9093146 -2.0526383 -0.17289209 4.5
-3.2273145 -1.7936481 -0.18076496 3.5999999
-3.1251123 -1.8301175 -0.30052346 3.7
-2.5628231 -1.9678996 -0.17867994 0
-2.2683036 -1.9724135 -0.27710104 0
-1.8932357 -1.9728737 -0.36222744 0
1.0863335 -1.9676373 -0.34562111 0
1.3043954 -1.96926 -0.30527401 0
1.8278192 -1.9666669 -0.15700769 0
2.635184 -1.7925943 -0.22214928 3.2
2.8965073 -1.7622991 -0.18944526 2.875
7.5647802 -1.8600032 -0.12201691 5
13.378629 -1.9411026 -0.0049037933 5
19.094061 -1.7406216 -0.049563408 5
-3.2607739 -1.3728602 -0.18889126 3.9000001
-3.1239386 -1.4312357 -0.29025608 4.5833335
2.6701076 -1.4010223 -0.24608812 3.8499999
2.940011 -1.3855188 -0.19714396 3.8888888
3.2905345 -1.353145 -0.15096068 2
5.0061526 -1.2400591 -0.2190876 2.5
6.2849536 -1.2057555 -0.10000324 2
6.4492016 -1.2337676 -0.093271017 2
6.9299779 -1.2543398 -0.074301958 2
13.476083 -1.3659683 -0.0093345642 6
-3.2468505 -0.99083954 -0.14452112 3.375
-3.1471171 -0.97674108 -0.25745836 5.2666669
2.7100575 -0.97627938 -0.24348269 4.1111112
2.9636621 -0.96636724 -0.21391515 4.652174
3.3041108 -0.94244468 -0.15513243 4.4074078
3.8243494 -0.87904996 -0.031004906 5.5
4.2066507 -0.91302109 -0.14839607 4.0555553
4.5487342 -0.9874953 -0.17072669 3
4.931458 -0.93334264 -0.13035971 3.2777777
5.3493633 -0.90719146 -0.19505334 3.4166667
5.77777 -0.93904245 -0.18256621 3.2
6.131731 -0.92416805 -0.13978393 3.0555556
6.5408435 -1.043169 -0.092278004 2.5555556
6.9685516 -0.98134321 -0.090537608 3
7.4664822 -0.99805927 -0.0961558 6
7.6683826 -0.98716378 -0.10703659 6
19.09399 -0.85566336 -0.028448105 6.5
19.217474 -0.85265332 -0.090782166 6
-3.2352521 -0.5938313 -0.16115095 4.6688495
-3.1564326 -0.58863866 -0.28050306 5.0111108
2.6852744 -0.60380787 -0.28295141 4.6666665
2.94327 -0.60386717 -0.19831549 5.177619
3.3219311 -0.59099638 -0.10727664 4.886713
3.861506 -0.59978205 -0.03682369 5.4375005
4.2044077 -0.60883576 -0.16951767 5.5064096
4.5414734 -0.56452233 -0.17503254 5.3157897
4.9449821 -0.50139773 -0.16209917 5.3421054
5.3711486 -0.56437612 -0.16440751 4.8472223
5.7608685 -0.60790056 -0.1395712 4.2976189
6.1693254 -0.56279385 -0.11155763 4.5
6.502037 -0.53041321 -0.1090556 4.6666665
6.9826927 -0.53328103 -0.099738859 5.1999998
7.3871946 -0.48664546 -0.10334935 5.5333333
7.7250009 -0.71057224 -0.059934378 4
19.120626 -0.76092613 -0.026572227 6.5
-3.2378874 -0.18853696 -0.16629483 6.485714
-3.1288624 -0.23303731 -0.31399927 6.6111112
2.6926012 -0.19292007 -0.30246237 5.9047618
2.9701319 -0.21124358 -0.2221662 6.6972222
3.333147 -0.21282609 -0.13595855 6.6639457
3.7478969 -0.21078278 -0.024014814 6.9523811
4.153842 -0.21450165 -0.16169655 6.7395835
4.5287538 -0.21562441 -0.19184114 6.7395835
4.9592881 -0.22576308 -0.1741551 6.637897
5.3453717 -0.22316404 -0.16140562 6.6066661
5.7788715 -0.23907091 -0.1468614 6.604938
6.1719608 -0.24053596 -0.13423087 6.5378795
6.5413156 -0.23992643 -0.12742676 6.7849998
6.9530721 -0.22728345 -0.11029441 6.8809524
7.3916388 -0.23469587 -0.10653406 6.9000001
7.7235899 -0.26323873 -0.064316809 6.791667
-3.2422121 0.25063628 -0.14694859 8.4057198
-3.1558065 0.21007216 -0.23974998 8.7905693
2.6926551 0.21948728 -0.28448009 8.6358757
2.932543 0.24962406 -0.2056134 8.1747541
3.3350887 0.21948175 -0.10632791 8.1316662
3.7741473 0.22909115 -0.015923543 8
4.1524997 0.23224573 -0.15638447 8
4.5038757 0.22141725 -0.18924932 8
4.9068894 0.21370047 -0.17413588 7.9833336
5.3430285 0.2107964 -0.15259787 8.0113573
5.7541947 0.21834639 -0.13175277 8.0210333
6.1389732 0.21854173 -0.1027486 8.04
6.5120258 0.26776198 -0.12392382 8
6.910111 0.20676458 -0.084139049 7.8958335
7.361237 0.22958094 -0.092862308 7.75
7.7386932 0.25729606 -0.089750767 8
13.392885 0.15982887 -0.098441124 8.0477505
19.109653 0.17059451 -0.03354416 8.0171995
-3.2519436 0.60409987 -0.19721124 9.2369585
-3.059181 0.58403164 -0.30173308 8.7325811
-2.6333098 0.63505912 -0.28701571 9.4217834
-2.2197371 0.64202684 -0.28372571 9.8129215
-1.8323317 0.63687277 -0.27014288 9.2457943
-1.4156178 0.63136876 -0.23418979 8.9898167
-1.0131737 0.6325196 -0.26216319 9.3807945
-0.65370566 0.63065982 -0.25390202 9.4172888
-0.24037638 0.66274887 -0.19708678 9.9002247
0.25203738 0.69041073 -0.33762169 7
0.66380191 0.73126906 -0.30664125 7.3333335
1.0306264 0.70023531 -0.18609819 9.3603926
1.377516 0.64687377 -0.20776263 8.856452
1.7854428 0.67574632 -0.20475495 9.3809309
2.1756053 0.65736252 -0.19594112 9.1500492
2.614434 0.61159939 -0.21994351 9.5632792
3.0037763 0.63427001 -0.16879526 9.1925755
3.3575814 0.58168334 -0.08832892 8.9982252
3.7517219 0.61777306 -0.022479193 8.1675711
4.1810288 0.58727467 -0.13728927 8.6676159
4.4989305 0.59842616 -0.13517812 8.5446844
4.9449983 0.57940727 -0.11918904 9.1135731
5.3669405 0.61328882 -0.12496704 9.0318928
5.744936 0.57492995 -0.11553712 8.8460684
6.2217836 0.63819039 -0.10600337 8.9141254
6.5573411 0.65471816 -0.07995826 8.5859175
6.9993334 0.65333885 -0.074163184 8.5430002
7.4506454 0.67367393 -0.048343688 8.5858755
7.8250761 0.78765893 -0.082158566 9
-3.2408478 1.0130705 -0.12072136 12.4079
-3.0515625 0.91352218 -0.24785987 10.611757
-2.6585472 0.99675977 -0.25810987 10.240732
-2.2376399 0.97545195 -0.27048823 9.822093
-1.8735218 0.98800975 -0.26889083 9.9379997
-1.4671364 0.96280521 -0.27048936 10.031834
-1.0145441 0.96481156 -0.27393553 9.5314999
-0.65018928 0.95191783 -0.27758375 9.5515337
-0.23471382 0.93475735 -0.2360611 9.8478889
0.19593213 0.88269329 -0.28612518 8.0838747
0.5566889 0.89482927 -0.32012463 7.75
1.0037819 0.95673227 -0.14807333 9.4819822
1.3912044 0.9814775 -0.21068133 9.7229443
1.7832961 0.99024087 -0.17337553 9.7349167
2.1911993 0.95409316 -0.18747312 10.052047
2.6037517 0.96960562 -0.1857205 10.283397
3.0204997 0.91008276 -0.13766319 10.584043
3.3105881 0.96053469 -0.10606901 10.460567
3.7623158 0.88976735 -0.10172176 8.573
4.2362256 0.86920911 -0.094408192 10.4405
4.5523143 0.92699212 -0.12609777 9.7243748
4.970293 0.98731178 -0.11056168 10.093019
5.3739824 0.95955026 -0.098063894 10.006141
5.7859421 0.99423558 -0.096299931 9.8102732
6.1254683 0.99079782 -0.061977912 9.6220503
6.4985518 0.94872683 -0.085016526 9.3769169
6.9646091 0.88973504 -0.041657131 9.4388332
7.4562297 0.94371867 -0.13264751 9
7.7757072 0.82791162 -0.04993248 9
14.967275 1.0709596 -0.28153229 9.0915003
16.142891 1.071931 -0.20636272 9.0900002
16.774235 1.0729924 -0.20258522 9.0889997
16.855762 1.1123143 -0.18077087 9.0895004
18.591497 1.0848002 -0.13446236 9.0865002
-3.2459517 1.5044098 -0.071946621 12.0115
-3.0944343 1.323227 -0.17232953 11.866893
-2.671977 1.3278702 -0.16356808 12.007556
-2.2638202 1.4146876 -0.24925673 12.252125
-1.8957981 1.3789171 -0.29103693 12.333333
-1.4775542 1.3582925 -0.2798349 12.333333
-0.99448776 1.328613 -0.22670612 12.401
-0.72614551 1.3330567 -0.16632009 13.001875
-0.27274048 1.3565898 -0.15605783 11.50025
0.99742627 1.3604721 -0.025232792 11.676374
1.3663887 1.3684945 -0.10968304 11.588125
1.7124968 1.3754079 -0.098372698 11.5875
2.0528622 1.4290528 -0.17302942 12
2.6541538 1.3635187 -0.1224639 12.433149
2.9382796 1.35641 -0.077373028 12.581875
5.8538532 1.2452884 -0.14223909 9
6.5006309 1.2650565 -0.12865925 9
6.8974895 1.2781563 -0.12077141 9
7.2723112 1.2909553 -0.11125278 9
7.608242 1.3027058 -0.099638939 9
-2.238884 1.656229 -0.042373896 14
-1.8701923 1.6539977 -0.1452384 14
-1.5211948 1.656634 -0.23870134 14
-1.0710638 1.6498702 -0.28936958 14
-0.23759079 1.6314048 -0.091722012 14.00075
1.0546904 1.6569389 -0.05372715 14.17475
1.3581003 1.6731172 -0.12665105 14.087
1.7277553 1.6911926 -0.17096758 14
2.0624752 1.6961203 -0.067687988 14
5.7416582 1.8143029 -0.0013744831 14.1505
19.202089 -2.8605895 0.15509033 5
13.223053 -2.4433713 0.11546326 4
-3.2585092 -2.045599 0.19151735 3
-2.7304742 -2.0262837 0.036571503 2
-2.2326939 -2.0374339 0.10552216 4
-0.64960325 -2.029016 0.38123322 4
2.3092332 -2.0286565 0.2195816 2
-3.2885947 -1.7627871 0.20814133 3.5999999
7.6904826 -1.8520761 0.041610718 5
13.330433 -1.8410267 0.15615463 5
13.918554 -1.955344 0.32003784 5
14.553964 -1.9495142 0.050328255 5.5
16.553057 -1.9839334 0.046239853 5
17.079739 -1.9842908 0.089824677 5
17.607496 -1.9859412 0.12269783 5
18.123659 -1.9807577 0.25887489 5
19.170938 -1.982398 0.38496017 5
19.266621 -1.9403417 0.34062195 5
-3.2658794 -1.4426156 0.21098036 3.125
3.5993536 -1.2245182 0.1389184 2
7.7491832 -1.3943815 0.133775 2
13.285573 -1.2990627 0.20098178 5.5555553
19.115643 -1.3599255 0.37490273 5
19.330105 -1.3820767 0.33101082 6
-3.2541978 -0.96056944 0.21659864 3.1153846
-3.1082659 -0.94521153 0.037746429 6
3.4597287 -0.95788175 0.017449284 4.0666666
3.8181338 -0.95581055 0.028286124 3.5400002
4.0100284 -0.99252421 0.036280632 4
4.9593034 -0.89907014 0.11688375 3
6.5327735 -0.81368101 0.052859783 4
7.7680092 -1.0179888 0.13721812 4.5
13.17953 -1.0309403 0.21063328 6
13.319865 -0.99327916 0.17974702 6
19.134411 -0.9761011 0.22160301 6.3000002
19.258524 -1.1119137 0.35559464 6
-3.2602127 -0.56718838 0.16765751 4.4988093
-3.0655966 -0.52718902 0.33406258 7
3.4434872 -0.60859883 0.011150551 5.4666667
3.7585433 -0.58538616 0.017892575 5.0833335
7.5853605 -0.60012323 0.16433907 6
7.7730141 -0.56735921 0.18291438 4.8857141
13.183861 -0.60027373 0.25737 6.5
13.333923 -0.63643765 0.19254361 6.9615383
18.658489 -0.74340618 0.12707138 7
19.094425 -0.53378892 0.041615486 7
19.297411 -0.62571651 0.25226149 7
-3.2608526 -0.17444046 0.25884899 6.4263039
3.7944541 -0.21635863 0.011479661 6.3530507
7.7370033 -0.22401573 0.14767304 6.6339145
8.0088301 -0.26866773 0.10656738 7
13.186793 -0.12277358 0.17049599 7
13.377503 -0.077799045 0.14289856 7
19.279503 -0.3892054 0.077545166 7
-3.2591362 0.24152303 0.21958223 8.2261906
3.81422 0.22726171 0.021573067 8.1148148
4.0046792 0.21257687 0.10270405 8.1674995
6.270834 0.23320581 0.014819145 8.1642494
6.64187 0.19153893 0.011391123 8.1569586
6.9368978 0.23395328 0.037114184 8.158042
7.3612032 0.23543985 0.033820845 8.1578999
7.7377052 0.19349574 0.16873325 8.055088
13.288217 0.20893855 0.17585684 7.909091
19.179865 0.27918997 0.29801941 8.0457497
19.239794 0.24542814 0.28248501 8
-3.2797973 0.57516181 0.22396956 9.6648788
2.9940932 0.79373616 0.22417295 13.385834
3.3786142 0.69916743 0.08091899 10.091215
3.7938261 0.60458922 0.057916604 9.2525377
5.5752501 0.54805291 0.0024681091 8.1719999
5.8332729 0.64657712 0.0069346428 9.1545
6.1688824 0.56950206 0.0058877468 8.6636248
6.683249 0.67437321 0.0089312 8.6615829
6.991775 0.63123792 0.033584077 8.4964581
7.4191842 0.65493643 0.03655836 8.6626873
7.727881 0.65365237 0.15929514 8.821188
13.37677 0.54295522 0.14814758 8.02425
13.79896 0.74369407 0.031517029 8
14.181829 0.74070239 0.038852692 8
14.605273 0.74580723 0.060461681 8
15.014791 0.72609615 0.040484112 8
15.388764 0.73181951 0.05390358 8
15.825855 0.72868758 0.066277504 8
16.251328 0.70046145 0.070049286 8
16.534672 0.72370219 0.091978073 8
16.906773 0.72116935 0.10517693 8
17.383345 0.71089238 0.14115269 7.6666665
17.856575 0.72330552 0.14456813 8
18.263002 0.71244526 0.15835571 8
18.619352 0.71034133 0.16838074 8
18.995028 0.70709932 0.18581009 8.0286255
-3.2614081 0.91907912 0.20655635 11.047164
2.953681 0.84294188 0.25294709 14.14325
3.3487492 0.94836771 0.088690758 11.924297
3.822464 0.87518817 0.15603001 11.325667
5.2393966 1.1435322 0.0092716217 11.162251
5.7188401 1.0657324 0.15949146 11.483833
6.0789099 0.80024779 0.0077853203 9.1602497
6.6419363 0.96920615 0.016487408 9.9566498
7.0200019 0.83687872 0.0079565048 8.1722498
7.4482803 0.95286202 0.088871166 10.042889
7.7385535 0.97347814 0.176512 10.0908
13.296417 1.0559471 0.11408043 9
14.936455 1.0313722 0.11286799 8.7276669
15.894424 0.92824888 0.072128296 8.1245003
16.819691 0.92855346 0.082733154 8.1295004
17.224424 0.92188275 0.10719299 8.1234999
17.903589 0.91830665 0.12121201 8.1269999
18.093647 0.93742943 0.21419144 8
18.595264 0.90382922 0.19003601 8.0006008
18.915421 0.87735713 0.24526024 7.75
19.258097 0.91672337 0.25862122 8
-3.2480795 1.320431 0.1981802 12.263625
2.2714922 1.3462608 0.003616333 11.1735
2.5580697 1.3533475 0.0091619492 11.17275
3.0074811 1.3160167 0.011492634 12.36645
3.3646748 1.3457491 0.12704614 12.735393
5.8037524 1.2527483 0.016185999 12.150249
6.1318665 1.3357495 0.02725774 11.6565
6.5371761 1.346082 0.033819735 11.901312
6.9541931 1.3443457 0.038101833 11.6515
7.2684693 1.4480839 0.043625116 11.817082
7.7112322 1.4659115 0.17735119 11.486563
14.358284 1.3928983 0.12238884 9.0930004
14.861692 1.4024761 0.13255024 9.0927505
15.331635 1.4029944 0.14795494 9.0922499
15.869333 1.4162869 0.15801239 9.092
-2.6989975 1.6543162 0.34376812 14.0125
2.6541142 1.7037909 0.17216516 14
7.2877493 1.6740117 0.20432973 12.15275
13.237007 2.0097826 0.10656357 9
-3.1959608 2.8490386 0.053855896 11.004
2.7993987 2.8621149 0.044668198 11.176
3.1827691 2.8694458 0.04778862 11.1755
-3.1658378 -2.006026 0.71549797 4
-1.9077364 -2.0226474 0.45898628 4
-1.096772 -2.0248542 0.42123985 4
17.098034 -2.0013289 0.58051109 4
19.313543 -2.0138397 0.5733223 5
-3.2852199 -1.7451423 0.61990976 3
-3.1675143 -1.6128075 0.77597427 5
-0.72267413 -1.9718556 0.79552746 0
14.320048 -1.9813114 0.7727623 4
14.659595 -1.9971317 0.6033268 4
14.919851 -1.9545777 0.60135937 5
15.386806 -1.9139459 0.68211365 6
17.444927 -1.9998654 0.61857796 4
17.788534 -1.9962498 0.68241882 4
18.129822 -1.9920496 0.75711441 4
19.303238 -1.6838779 0.77661514 6
-3.2765408 -1.4078089 0.60156959 3.2222221
19.149532 -1.2900288 0.44094753 6
-3.2655945 -0.94067043 0.59061629 3.125
4.0560794 -0.85799599 0.75973654 2
4.4631014 -0.81530207 0.70655245 2
4.9310417 -0.85059297 0.72299767 4
5.2123609 -0.8683027 0.79239368 3
7.8007555 -1.0696402 0.58073795 3
19.260439 -0.95511031 0.41360664 6
-3.2762003 -0.537112 0.60699517 4.6772723
4.1803555 -0.78928232 0.77850091 2
4.4073625 -0.78394479 0.6957463 2
5.2961607 -0.70909035 0.77295268 3.5
7.1175447 -0.69997495 0.40206122 4
7.8177986 -0.52262133 0.57444745 5.1999998
-3.2624533 -0.16967705 0.63445717 6.2659931
7.8048086 -0.21358328 0.58047897 6.751852
19.336882 -0.38221955 0.42070389 7
-3.2732236 0.22836606 0.66803318 8.3065481
7.816638 0.20402335 0.62828165 8.0866585
-3.2721055 0.5776639 0.62976503 10.062186
2.9977336 0.78035975 0.62363327 13.078
7.7980347 0.62951779 0.63238096 8.5848494
-3.2638078 0.99320513 0.63677758 12.318577
3.0060334 0.81518364 0.49844182 12.58275
3.4182978 1.0585246 0.50279373 11.662719
5.653676 0.94720894 0.62645972 10.542822
7.2759199 1.0719777 0.66337991 11.14975
7.8076711 0.99907696 0.6314525 10.373304
19.135296 0.90339756 0.74717712 8.1300001
19.336527 0.89007241 0.75551224 8
-3.2703102 1.3733189 0.72503757 12.01275
3.4474549 1.3595986 0.55782539 12.912749
7.8021927 1.4571701 0.55338889 12
3.0029809 1.708071 0.50109386 14.1655
7.580606 1.7351806 0.66892433 12.15275
7.8181686 1.6562601 0.61495125 12.074625
-3.2851937 -1.847599 0.93787003 3.5999999
-2.5621548 -1.9653625 1.1015229 0
-2.3264728 -1.961791 1.0050676 1.5
-1.955409 -1.9645824 0.92722821 1.5
-1.4394535 -1.9637238 0.87228203 2
-1.1171324 -1.971417 0.81955528 0
-0.68172979 -1.960197 0.86110878 3
1.0504463 -1.966017 0.96265507 0
1.2672341 -1.9620829 1.0252657 0
1.6205662 -1.9570262 1.134974 0
13.807318 -1.9770535 0.85244179 4
18.638844 -1.9861437 0.87597466 4
19.149624 -1.9832345 0.97717667 4
-3.283694 -1.4255831 0.97142589 3.1428571
7.8133855 -1.4256383 0.94411546 2
-3.2726638 -0.93762171 1.0097188 2.8222222
2.9905646 -1.0113913 1.1351781 2
3.3541076 -0.89162135 0.97554785 0.66666669
5.2263904 -0.82346809 1.1638908 5
7.8291702 -1.023489 1.1405615 3.3333333
19.25445 -1.10439 1.0880775 6
-3.2749784 -0.54598945 0.99212968 4.2555556
-3.1398735 -0.69521958 1.0099325 7
4.3103218 -0.66509867 0.82333118 3
4.5172539 -0.56458294 0.88984358 3.8
5.1015878 -0.51218599 0.93668079 4
5.2488499 -0.66463244 0.96514118 4.625
6.0740552 -0.62418205 0.89904863 4.3333335
6.4099436 -0.55446023 1.0208216 5
7.813942 -0.57578409 1.0700247 5.5
-3.2737992 -0.16550913 1.0008988 6.3276033
4.7480712 -0.36482057 0.99736577 5
5.0180159 -0.30845699 1.1061993 5.1999998
5.4222517 -0.33453816 1.0083191 6
5.7756677 -0.25969133 1.0720631 6
6.0956893 -0.29793319 1.0874205 6
7.823875 -0.23054957 0.96777707 6.4757581
-3.2760556 0.25234535 1.0268906 8.2895889
7.8131042 0.20825282 1.0480496 8.0795002
19.139999 0.2260913 0.90874672 8.0854998
-3.2908359 0.57601565 1.0153462 9.6063633
2.9679284 0.73933184 0.86511087 9.1707497
7.8030405 0.64128983 1.0271968 8.8110943
-3.2782521 0.9523133 1.0254906 11.784695
2.9463558 0.87519825 0.92483473 14.070188
3.4236119 1.0546381 0.89838248 12.443464
3.7002571 0.86923707 0.85799503 9.1689997
5.6532841 0.95010573 1.0267377 10.794875
7.8024631 0.985322 1.0289038 10.309
-3.2591779 1.2855868 1.0490471 13.351666
3.4353218 1.3459879 0.95350629 12.498001
7.8030095 1.4872789 0.9104746 12
7.8008509 1.6206776 0.98772788 12
-3.2944193 -2.0082564 1.5780802 2
-2.5904346 -2.0225785 1.3651371 2
-2.2958479 -2.0331912 1.2643852 2
-1.8898802 -2.0364146 1.2023439 2
-3.2924984 -1.7129869 1.2963238 2
1.9187516 -1.9521058 1.2434454 0
2.8952248 -1.9527781 1.3843813 3
18.362614 -1.9256768 1.5002861 5
19.154503 -1.7115833 1.4012594 5
-3.297467 -1.3911773 1.4010278 3.125
19.207758 -1.4454594 1.5471087 5.5
-3.2814026 -0.91939008 1.3839666 2.5625
-3.1833601 -0.89499682 1.4099655 6
3.0521536 -0.95237857 1.5071148 1.1666666
3.2827435 -0.89973569 1.4015445 2
3.655175 -0.87184888 1.4405295 3.6666667
19.293594 -0.8133027 1.5592575 6
-3.2813499 -0.55580556 1.426594 4.1210527
3.8574448 -0.79849637 1.519237 3
4.6019835 -0.4293856 1.2964988 5
6.1284127 -0.69789368 1.5964699 4
7.7814074 -0.62824893 1.3843334 5.4000001
-3.2745657 -0.15643938 1.4273897 6.2026143
4.6832805 -0.36102039 1.4296389 5
4.9208741 -0.28796321 1.4396797 5
5.2020545 -0.33110571 1.5956736 6
7.7956791 -0.27764568 1.4095492 6.2374997
19.358299 -0.37487471 1.2400856 7
-3.2818124 0.22677906 1.4499798 8.4011116
-3.1109791 0.34928325 1.5301691 9.3594999
7.8095002 0.18756214 1.417125 8.0711365
13.188148 0.28667128 1.3230553 8.0994997
19.152657 0.23086005 1.316709 8.0898743
-3.2995746 0.55491418 1.4662064 10.351832
-2.0110185 0.618348 1.4144999 14.061125
-1.9750099 0.65110278 1.5043058 12.517
0.91181809 0.6016947 1.4739509 11.6725
3.6483178 0.75489658 1.5822849 8.1754999
5.1187205 0.649261 1.4465246 11.0855
7.7868204 0.65656638 1.4641174 8.8321667
-3.2882447 0.9420194 1.441982 11.807244
2.3423777 1.0585675 1.5370468 11.6685
2.9913054 0.90516919 1.3718888 13.787125
3.3898993 1.0336068 1.492829 10.417688
3.6868765 0.9188866 1.3884771 11.65975
4.7173901 1.0777789 1.5163462 12.152
5.6317525 0.99319011 1.4894974 11.318151
7.2111225 1.0889308 1.4923129 11.15125
7.7862797 0.96500659 1.4581239 9.9923611
19.319328 0.91148746 1.3601532 8
-3.2870793 1.2636281 1.4038424 12.014
2.3358407 1.3953191 1.4722815 14.166
3.4267292 1.3036774 1.3805388 12.828918
7.7567258 1.5574061 1.3902863 12.048833
1.5248182 -2.0000918 1.8501816 5
2.364363 -2.0364776 1.6098366 2
-3.3225644 -1.7442307 1.8861748 2.6666667
-3.1894021 -1.8862987 1.7390404 4.5
-2.3804221 -1.9892792 1.7540741 4
-1.9778357 -1.9898616 1.7293129 4
-1.5735389 -1.9858238 1.761343 4
-1.1715615 -1.9933668 1.6759663 4
0.46019638 -1.9954165 1.6559448 5
0.98646009 -1.9945966 1.6794529 5
13.288912 -1.9479504 1.8703651 5
14.321004 -1.9592013 1.786541 5
16.391134 -1.9738033 1.8164635 5
16.904869 -1.9742572 1.8861809 5
19.155638 -1.6268896 1.870554 5
19.314983 -1.8994619 1.6505737 5
-3.3104348 -1.3484459 1.7450516 3.1249998
2.6948214 -1.4122388 1.657655 3.25
-3.298965 -0.94134867 1.829408 3.2142856
-3.1631536 -0.88661265 1.834362 6
2.7894022 -1.1030331 1.8119192 2
2.984056 -1.0056126 1.8524675 1.8
3.3117976 -0.89953804 1.7531457 2.25
3.8223083 -0.86423063 1.8375088 4.1666665
5.3770056 -0.81221628 1.8584127 3
7.807723 -0.99008399 1.8022549 3.5
19.222107 -1.1234951 1.8058052 6
-3.2968097 -0.5628792 1.830161 4.3375001
4.0544109 -0.77781767 1.8974715 2.6666667
4.6011152 -0.49774981 1.8213644 4.75
5.3872643 -0.7705524 1.831512 3
6.0616674 -0.67466432 1.8397489 4
7.7663836 -0.60555196 1.7693046 5.666667
-3.2969534 -0.17801677 1.8180009 6.0677156
4.7757273 -0.34468406 1.9484944 5
4.9835277 -0.30603105 1.7759888 5.1999998
5.2481141 -0.32387838 1.641511 6
5.7654152 -0.33803067 1.9221238 6
6.0620837 -0.33323205 1.9342313 6.5
7.7843833 -0.26784059 1.8040845 6.28125
19.345085 -0.36813968 1.7420082 7
-3.2968214 0.23117463 1.8463731 8.1670389
7.7915249 0.20735545 1.8249141 8.0865011
-3.3119268 0.58294982 1.8607848 9.719306
-1.9904847 0.59570646 1.8970693 12.352417
-0.15288667 0.73924083 1.8479513 9.8629999
0.49077821 0.66665339 1.8299217 8.1759996
0.99365234 0.76865608 1.8932739 11.780667
1.2675066 0.76435399 1.8874607 10.58525
1.6566497 0.73816252 1.8255968 9
2.0617423 0.74289358 1.8480968 9
2.4444385 0.77187908 1.8902436 11.558625
2.9174583 0.77089089 1.8786669 11.104333
5.121284 0.66553104 1.8809614 10.386167
7.7761993 0.59724069 1.862666 8.6306658
19.075602 0.43656799 1.8152428 8.1059999
-3.3194122 0.91148454 1.7996159 11.532326
-0.53976369 1.0113978 1.9334245 10.5015
1.2762133 0.84087324 1.886729 14.167
2.6323602 0.83489376 1.8730235 14.1185
2.9040563 0.81474304 1.8240643 14.042417
3.3885005 1.034674 1.8718621 12.814416
3.793561 0.92778325 1.6065369 12.1545
4.7054043 1.0474384 1.815773 12.15075
5.5933309 0.90606719 1.7493792 9.1680002
5.6286139 0.96010101 1.7895321 10.868437
7.7737694 0.99076462 1.8343357 10.504126
13.187336 1.1173376 1.8876419 8.1070004
19.053247 0.84621578 1.8962021 8.132
3.4120786 1.2266376 1.8483725 14.15475
7.7758002 1.4789883 1.7333599 12.0551
19.172161 1.9303603 1.6128712 9.0874996
-3.3318686 -1.7723982 2.2132392 3
-2.1558764 -1.9536568 2.3138776 3
-1.6644927 -1.9657606 2.2694321 4
-1.5715654 -1.9539044 2.3723993 0
-1.16593 -1.9731162 2.2023892 2.5
-0.76868725 -1.9636738 2.2718987 0
2.7994101 -1.6335067 2.082283 4
3.2547536 -1.9986554 2.0425758 4
13.810055 -1.9295132 2.1605644 5
17.9328 -1.9783738 2.0026455 5
18.355373 -1.90165 2.1480293 5
18.436628 -1.975898 2.1334953 5
19.047417 -1.8969672 2.1849155 5
-3.3218379 -1.3347715 2.1902342 3.25
2.7729263 -1.3124456 2.0008564 3
2.912097 -1.3577814 2.2356751 4
7.8306117 -1.4135576 2.2578614 2
-3.3082492 -0.94422752 2.229821 3.4333332
3.0235164 -1.0552531 2.1531277 2.3333333
3.355155 -0.99779022 2.260035 3
3.7863414 -0.86411512 2.2588611 3.8
4.1672392 -0.84909016 2.285882 3.6363637
4.4937587 -0.92064476 2.3774328 3
4.8509879 -0.82313383 2.3763804 3
7.7096944 -1.0527565 2.2824516 3
-3.3060405 -0.5487482 2.2385354 4.352941
-3.1852074 -0.69631052 2.2831097 7
4.2043381 -0.71273184 2.1983552 3.25
4.6360674 -0.55359596 2.1939769 4.875
4.9448423 -0.43707108 2.170717 5.1999998
5.2529349 -0.5704006 2.211376 4.2777777
5.6427808 -0.43066025 2.1151791 6
6.099206 -0.58183235 2.1982791 4.5238094
6.4849186 -0.41710606 2.2111235 5
6.9652147 -0.68795615 2.3818252 4
7.7679219 -0.52954447 2.1999471 5.3166666
-3.307791 -0.16585486 2.216073 6.1750002
-3.1296532 -0.14826365 2.0954494 7
4.7281814 -0.3682445 2.1041667 5
5.0429578 -0.32698038 2.0767844 5.5555553
5.4007192 -0.3096894 2.1248097 5.6666665
5.7960787 -0.32898489 2.1289179 5.8000002
6.174715 -0.33434838 2.1223433 6
7.7765532 -0.24481513 2.1925936 6.3151517
-3.3099227 0.24999371 2.2196627 8.1374998
-3.1166651 0.29392487 2.1642609 8.0074997
7.7817917 0.20257361 2.2180827 8.0663137
13.162579 0.24668555 2.1287327 8.0944996
19.108427 0.18790083 2.1820838 8.0871668
-3.3092821 0.56345487 2.2165449 10.137107
-2.0243175 0.60302854 2.2402372 14.044875
2.1145644 0.74181151 2.0039256 10.171499
2.4720049 0.77289021 2.0239077 12.65825
2.8507483 0.77910793 2.0655556 11.1655
3.3429129 0.76522267 2.1457825 8.1754999
5.1295123 0.65883106 2.2400723 10.427958
5.5486584 0.77218997 2.1328392 8.1730003
7.7688727 0.67160195 2.2079849 8.8323612
-3.6151261 0.81077355 2.108902 8.1684999
-3.3071151 0.91502082 2.1297889 12.113174
-3.0108228 1.0736554 2.3851333 11.50725
-2.658185 1.0722857 2.2446275 11
-2.144783 1.0808706 2.2773848 14
-0.54607671 1.0777856 2.0087295 14.003
2.2881277 1.1029717 2.0161595 12.168
2.905498 1.0760667 2.1089315 14.1555
3.4073949 1.0071577 2.1921687 12.894143
4.662292 1.0477941 2.297442 11.162
5.5941281 0.98394418 2.0666723 11.15675
5.6213222 0.98218334 2.1181664 10.581751
7.7730827 1.0386455 2.2011344 10.690851
18.847586 1.0663666 2.0550365 9.0860004
7.76161 1.4698925 2.1812367 12
-4.1543002 -3.8411911 2.6231658 3
-3.759486 -3.8568573 2.710007 2.5
-3.4024506 -3.7676487 2.6947975 2.3333333
-3.6532307 -3.378974 2.7302539 2.6666667
-3.4474659 -3.4561281 2.7414436 2
-3.6358347 -2.9869525 2.7566299 2.6666667
-3.4735675 -2.9558334 2.7416883 2.75
-3.1922579 -2.9601634 2.6642838 4
-3.4032009 -2.6075804 2.7093639 3.1428571
-3.1166997 -2.7920835 2.6284142 4
-3.6070316 -2.3727989 2.7612629 3
-3.4553425 -2.2717621 2.7271435 3.6666667
-2.7861662 -2.0047848 2.6086617 5
2.995717 -2.0307968 2.516283 5
-3.6952446 -1.7823292 2.7583523 3
-3.41783 -1.7673477 2.6836767 3.9000001
-3.1028829 -1.9701844 2.6474037 5
-2.2102861 -1.9565725 2.4716191 0
-1.9542836 -1.9537747 2.4323988 0
-0.7855401 -1.967919 2.4077911 5
1.0135182 -1.9588759 2.4501629 0
1.4266624 -1.9561065 2.5614188 0
1.8482214 -1.9506735 2.7057254 0
2.3580644 -1.9564246 2.5960798 3
2.6102152 -1.9561824 2.6565666 3
13.143799 -1.8084615 2.533205 4
13.40881 -1.9230117 2.7331486 5
13.780632 -1.9387811 2.6669025 4
14.286082 -1.946009 2.5662174 4
14.626808 -1.9460443 2.5516376 4
-8.1315289 -1.4956875 2.6564519 2
-6.6355996 -1.2241348 2.695281 2
-4.5902638 -1.2420896 2.7107611 2
-4.364233 -1.2187574 2.7160926 2
-3.7916462 -1.3238809 2.7355127 3.7777777
-3.4148502 -1.4120836 2.6956394 4.0972223
7.7861662 -1.4001226 2.5159523 2
13.1732 -1.362277 2.7474318 5
-8.3227987 -1.1697873 2.6345472 3
-7.8865166 -1.1086882 2.6516321 3
-7.2127128 -1.0146555 2.6753888 3
-6.9716883 -0.93372524 2.6192331 4
-6.6243463 -1.0232977 2.6795666 2.8333333
-6.2351656 -0.93481863 2.6888061 3.5625
-5.834528 -0.97133178 2.6662416 3.651515
-5.4040809 -0.99394375 2.6491041 4.09375
-4.989347 -0.89936316 2.673985 4.6754384
-4.5861239 -0.93417501 2.6855686 4.4347825
-4.2177024 -0.91699016 2.6777973 4.8157897
-3.7997293 -0.97337598 2.7019932 4.5555558
-3.4168203 -0.94542003 2.6583412 4.1382113
-3.1430256 -1.0442861 2.6021004 6
4.2547636 -0.82627726 2.5925725 4.5
5.9496579 -0.85181105 2.4590604 3
6.2551441 -1.0080795 2.4852705 2.5
7.767066 -1.0568442 2.5071363 3
-8.5510426 -0.52009434 2.6875787 5
-8.3441639 -0.54183125 2.6094599 4.875
-7.8246613 -0.51415581 2.6212456 5.0370374
-7.3985534 -0.50960743 2.6145241 4.9583335
-7.0704365 -0.4681868 2.656497 5.3888888
-6.6528554 -0.53237516 2.6674085 5.0208335
-6.2476864 -0.5151602 2.6507597 5.5520835
-5.8090153 -0.51876789 2.6660314 5.5227275
-5.4184537 -0.54692113 2.6861901 5.4294868
-4.9997902 -0.5753082 2.6921842 5.4666662
-4.5983534 -0.55330712 2.7025564 5.3550725
-4.1704431 -0.57351708 2.7074218 5.3866663
-3.7676377 -0.58605397 2.7240007 5.3781605
-3.401654 -0.57337934 2.6779835 4.6828833
5.48839 -0.79573905 2.4060922 3
7.7568436 -0.52100474 2.5724385 5.2619047
13.171859 -0.61516321 2.6399078 6.5
-8.5144596 -0.20936918 2.6120276 6.7173915
-8.2348585 -0.23757003 2.5550137 6.8684211
-7.8598309 -0.22670573 2.5740838 6.8636365
-7.4219146 -0.23857206 2.5890093 6.7826085
-7.0050044 -0.2226457 2.6053531 6.8397441
-6.5655193 -0.21957174 2.6235011 6.727778
-6.1541638 -0.19954099 2.6400912 6.7652779
-5.8069201 -0.20088348 2.644011 6.7785716
-5.4114575 -0.19517758 2.6380062 6.8205881
-5.0159392 -0.19187938 2.6485238 6.8549109
-4.5929298 -0.18375447 2.6598773 6.8333335
-4.1981101 -0.18279478 2.6716063 6.8396826
-3.8057895 -0.18902506 2.6813033 6.8080812
-3.4006064 -0.18196006 2.6568232 6.5917315
7.7653713 -0.24327034 2.5992563 6.3148146
-8.5664034 0.27301785 2.6495695 8.0148888
-8.1939955 0.22958489 2.6848979 8.0392494
-7.8343711 0.28657356 2.6426518 8.0221252
-7.3394094 0.22053404 2.612464 8.0190001
-6.9068193 0.2914663 2.6387203 8.0283747
-6.5652494 0.26560992 2.630909 8.0113497
-6.1782532 0.2516222 2.6490183 8.0125551
-5.8260593 0.24834 2.6423862 7.9317694
-5.4039574 0.25048286 2.6666136 8.0102272
-5.0442858 0.24309553 2.6772499 8.0370369
-4.6341033 0.26651561 2.6827185 8.0787783
-4.2337723 0.25382268 2.6928 8.0612001
-3.8666985 0.26385629 2.7044976 8.1040764
-3.4030631 0.24715674 2.6373558 8.2113543
7.7667298 0.19968873 2.6203249 8.0550833
13.154144 0.27566552 2.6030512 8.0515003
19.134592 0.26750141 2.5776129 8.0932503
-8.4933949 0.52457851 2.6445799 8.0622501
-8.1883945 0.49426299 2.6475992 8.0043001
-7.7866373 0.48906475 2.6889668 8.0336246
-7.3751316 0.47848034 2.7116756 8.0050001
-6.8686562 0.43329215 2.6305008 8.0567493
-6.4812632 0.42931026 2.7496719 8
-6.1712112 0.57712036 2.6386847 8.7782497
-5.4776015 0.4420127 2.6643026 8.7041664
-4.9834137 0.41270795 2.7098594 9
-4.6008577 0.56241518 2.7183681 8.8731432
-4.1666155 0.57828891 2.7252271 8.6000004
-3.8220062 0.57825935 2.7117639 8.2068338
-3.4106717 0.59961903 2.6578946 9.309186
-2.0393841 0.64064986 2.4442229 14.06175
0.90428197 0.6425699 2.5268056 14.1675
5.1287417 0.68215925 2.4493313 11.127999
5.4545908 0.69552737 2.7414036 8.1717491
5.6999125 0.70505416 2.7596226 8.1730003
7.7581587 0.6503197 2.6365418 8.8637257
-8.608779 1.040103 2.6465034 9.0050001
-4.1580701 1.0606278 2.7004359 9
-3.7863777 1.0270746 2.6870334 9
-3.3369818 0.97950757 2.5988662 11.009933
-3.0489988 1.0878954 2.4555264 10.00525
-2.5791712 1.137063 2.5341079 11.00745
-2.1470025 1.1129794 2.4468396 10.666667
-1.6092441 1.0701939 2.4722586 9
-1.2531626 1.119822 2.5602803 9.0011253
-0.95517474 1.1650728 2.5075474 10.666875
-0.54692566 1.117064 2.6320267 9.0007496
-0.26033351 1.1699606 2.7039566 12.0005
1.0018873 1.1344472 2.6454577 9.8659286
1.3371342 1.1151302 2.6727147 10.13175
1.8800402 1.128975 2.5292356 10.780167
2.1933434 1.0622518 2.6409516 10.5024
2.5419705 1.1001748 2.72486 10.835983
2.9603999 1.0744268 2.6929181 11.658543
3.3709533 0.97218037 2.6127672 12.185624
3.6473732 0.91002703 2.5556145 10.072001
4.6572738 1.1085248 2.4845119 12.1535
4.9099989 1.1484156 2.7488852 10.165751
5.4826446 0.98629445 2.6293991 10.651292
5.9283285 1.1962484 2.5945072 12.145
6.3028479 1.1951318 2.6293592 12.13875
7.1953902 1.0096455 2.788518 9.1604996
7.204309 1.0312679 2.4575224 9.1610003
7.7563424 0.99915522 2.5847402 10.277451
13.19006 1.019967 2.7489338 9
19.014252 0.85790813 2.642231 8.1339998
-5.0965252 1.2925704 2.6708164 8
-4.3812242 1.2039984 2.6911154 9
-3.8522725 1.5521166 2.7255292 12
-3.3516517 1.4105092 2.6984799 12.2086
-3.0638833 1.4193519 2.5714536 12.60885
-2.7048814 1.3621222 2.4362104 12
-2.3536327 1.3591015 2.4453001 12
-1.9015945 1.3578601 2.4600842 12
